-8.383 -8.718 -1.514 0 0 0
-8.383 -8.772 -1.52 0 0 0
-8.36 -8.803 -1.52 0 0 0
-8.303 -8.799 -1.514 0 0 0
-8.269 -8.818 -1.513 0 0 0
-8.236 -8.811 -1.509 0 0 0
-8.117 -8.738 -1.49 0 0 0
-8.131 -8.809 -1.499 0 0 0
-8.084 -8.814 -1.495 0 0 0
-8.058 -8.84 -1.495 0 0 0
-8.039 -8.876 -1.497 0 0 0
-8.018 -8.909 -1.498 0 0 0
-7.956 -8.868 -1.488 0 0 0
-7.921 -8.884 -1.487 0 0 0
-7.893 -8.909 -1.487 0 0 0
-7.837 -8.903 -1.481 0 0 0
-7.752 -8.862 -1.468 0 0 0
-7.747 -8.913 -1.474 0 0 0
-7.767 -8.993 -1.484 0 0 0
-7.68 -8.921 -1.468 0 0 0
-7.642 -8.933 -1.466 0 0 0
-7.555 -8.888 -1.453 0 0 0
-7.538 -8.925 -1.456 0 0 0
-7.499 -8.935 -1.453 0 0 0
-7.429 -8.908 -1.444 0 0 0
-7.423 -8.959 -1.449 0 0 0
-7.388 -8.945 -1.444 0 0 0
-7.39 -9.005 -1.451 0 0 0
-7.362 -9.028 -1.451 0 0 0
-7.28 -8.985 -1.439 0 0 0
-7.27 -9.031 -1.443 0 0 0
-7.24 -9.052 -1.443 0 0 0
-7.171 -9.024 -1.433 0 0 0
-7.119 -9.017 -1.428 0 0 0
-7.011 -8.908 -1.407 0 0 0
-7.073 -9.045 -1.427 0 0 0
-6.993 -9.002 -1.415 0 0 0
-7.068 -9.157 -1.439 0 0 0
-6.967 -9.085 -1.423 0 0 0
-6.919 -9.082 -1.418 0 0 0
-6.826 -9.018 -1.403 0 0 0
-6.843 -9.07 -1.41 0 0 0
-6.759 -9.019 -1.397 0 0 0
-6.775 -9.099 -1.408 0 0 0
-6.711 -9.072 -1.399 0 0 0
-6.722 -9.147 -1.409 0 0 0
-6.696 -9.172 -1.409 0 0 0
-6.664 -9.188 -1.408 0 0 0
-6.624 -9.194 -1.406 0 0 0
-6.569 -9.148 -1.396 0 0 0
-6.573 -9.214 -1.404 0 0 0
-6.494 -9.165 -1.392 0 0 0
-6.51 -9.249 -1.403 0 0 0
-6.445 -9.217 -1.394 0 0 0
-6.362 -9.161 -1.381 0 0 0
-6.418 -9.303 -1.402 0 0 0
-6.308 -9.175 -1.378 0 0 0
-6.287 -9.206 -1.38 0 0 0
-6.208 -9.152 -1.367 0 0 0
-6.213 -9.222 -1.376 0 0 0
-6.239 -9.322 -1.39 0 0 0
-6.129 -9.222 -1.369 0 0 0
-6.173 -9.351 -1.388 0 0 0
-6.062 -9.216 -1.363 0 0 0
-6.032 -9.233 -1.363 0 0 0
-6.054 -9.33 -1.376 0 0 0
-6.023 -9.346 -1.376 0 0 0
-6.01 -9.391 -1.38 0 0 0
-5.912 -9.302 -1.362 0 0 0
-5.892 -9.335 -1.364 0 0 0
-5.884 -9.354 -1.366 0 0 0
-5.831 -9.336 -1.36 0 0 0
-5.82 -9.384 -1.365 0 0 0
-5.738 -9.317 -1.351 0 0 0
-5.766 -9.428 -1.366 0 0 0
-5.757 -9.479 -1.372 0 0 0
-5.552 -9.21 -1.324 0 0 0
-5.68 -9.454 -1.363 0 0 0
-5.655 -9.48 -1.364 0 0 0
-5.696 -9.615 -1.384 0 0 0
-5.536 -9.415 -1.348 0 0 0
-5.422 -9.289 -1.324 0 0 0
-5.4 -9.318 -1.326 0 0 0
-5.571 -9.681 -1.383 0 0 0
-5.437 -9.518 -1.354 0 0 0
-5.473 -9.616 -1.368 0 0 0
-5.285 -9.354 -1.323 0 0 0
-5.433 -9.686 -1.374 0 0 0
-5.238 -9.41 -1.326 0 0 0
-5.324 -9.634 -1.36 0 0 0
-5.29 -9.644 -1.359 0 0 0
-5.269 -9.678 -1.362 0 0 0
-5.295 -9.761 -1.374 0 0 0
-5.218 -9.692 -1.36 0 0 0
-5.217 -9.762 -1.369 0 0 0
-4.913 -9.267 -1.287 0 0 0
-5.028 -9.555 -1.33 0 0 0
-4.948 -9.474 -1.315 0 0 0
-5.029 -9.702 -1.349 0 0 0
-5.069 -9.817 -1.366 0 0 0
-4.988 -9.737 -1.35 0 0 0
-4.884 -9.608 -1.327 0 0 0
-4.759 -9.437 -1.298 0 0 0
-4.79 -9.573 -1.317 0 0 0
-4.92 -9.908 -1.368 0 0 0
-4.842 -9.828 -1.353 0 0 0
-4.952 -10.131 -1.398 0 0 0
-4.801 -9.94 -1.364 0 0 0
-4.563 -9.527 -1.297 0 0 0
-4.411 -9.361 -1.267 0 0 0
-4.664 -9.977 -1.361 0 0 0
-4.541 -9.794 -1.33 0 0 0
-4.582 -9.923 -1.349 0 0 0
-4.422 -9.657 -1.305 0 0 0
-4.381 -9.647 -1.302 0 0 0
-4.289 -9.526 -1.281 0 0 0
-4.371 -9.788 -1.319 0 0 0
-4.252 -9.603 -1.288 0 0 0
-4.439 -10.107 -1.364 0 0 0
-4.221 -9.656 -1.294 0 0 0
-4.222 -9.742 -1.305 0 0 0
-3.995 -9.382 -1.245 0 0 0
-4.177 -9.892 -1.322 0 0 0
-4.295 -10.257 -1.376 0 0 0
-3.766 -9.081 -1.193 0 0 0
-4.044 -9.791 -1.301 0 0 0
-3.847 -9.399 -1.239 0 0 0
-4.233 -10.429 -1.395 0 0 0
-3.952 -9.829 -1.301 0 0 0
-3.958 -9.933 -1.315 0 0 0
-3.938 -9.975 -1.32 0 0 0
-3.833 -9.799 -1.291 0 0 0
-3.822 -9.818 -1.293 0 0 0
-3.774 -9.786 -1.287 0 0 0
-3.699 -9.681 -1.269 0 0 0
-3.671 -9.793 -1.282 0 0 0
-3.956 -10.649 -1.41 0 0 0
-3.899 -10.598 -1.4 0 0 0
-3.436 -9.439 -1.224 0 0 0
-3.763 -10.38 -1.365 0 0 0
-3.625 -10.099 -1.321 0 0 0
-3.427 -9.646 -1.251 0 0 0
-3.704 -10.523 -1.381 0 0 0
-3.327 -9.556 -1.234 0 0 0
-3.343 -9.699 -1.254 0 0 0
-3.258 -9.552 -1.23 0 0 0
-3.579 -10.537 -1.377 0 0 0
-3.234 -9.629 -1.24 0 0 0
-3.514 -10.563 -1.378 0 0 0
-3.503 -10.642 -1.388 0 0 0
-3.215 -9.983 -1.287 0 0 0
-3.001 -9.474 -1.209 0 0 0
-3.374 -10.758 -1.398 0 0 0
-3.329 -10.735 -1.393 0 0 0
-3.008 -9.816 -1.255 0 0 0
-3.028 -9.992 -1.28 0 0 0
-3.222 -10.745 -1.39 0 0 0
-3.199 -10.793 -1.395 0 0 0
-3.182 -10.796 -1.395 0 0 0
-3.143 -10.79 -1.393 0 0 0
-3.031 -10.532 -1.353 0 0 0
-3.027 -10.641 -1.368 0 0 0
-3.035 -10.797 -1.389 0 0 0
-2.694 -9.71 -1.228 0 0 0
-2.689 -9.812 -1.242 0 0 0
-2.673 -9.876 -1.25 0 0 0
-2.91 -10.808 -1.386 0 0 0
-2.87 -10.795 -1.383 0 0 0
-2.842 -10.825 -1.386 0 0 0
-2.557 -10.004 -1.264 0 0 0
-2.735 -10.834 -1.384 0 0 0
-2.706 -10.859 -1.386 0 0 0
-2.378 -9.621 -1.205 0 0 0
-2.65 -10.853 -1.383 0 0 0
-2.617 -10.869 -1.384 0 0 0
-2.582 -10.871 -1.384 0 0 0
-2.407 -10.286 -1.297 0 0 0
-2.499 -10.824 -1.374 0 0 0
-2.438 -10.718 -1.358 0 0 0
-2.458 -10.882 -1.381 0 0 0
-2.423 -10.885 -1.38 0 0 0
-2.388 -10.891 -1.38 0 0 0
-2.348 -10.869 -1.376 0 0 0
-2.312 -10.867 -1.375 0 0 0
-2.103 -10.051 -1.255 0 0 0
-2.102 -10.205 -1.277 0 0 0
-2.229 -10.898 -1.377 0 0 0
-2.129 -10.583 -1.33 0 0 0
-2.162 -10.918 -1.377 0 0 0
-1.95 -10.025 -1.248 0 0 0
-2.091 -10.92 -1.376 0 0 0
-2.057 -10.928 -1.376 0 0 0
-2.024 -10.941 -1.377 0 0 0
-1.855 -10.22 -1.272 0 0 0
-1.971 -10.942 -1.376 0 0 0
-1.775 -10.05 -1.246 0 0 0
-1.9 -10.947 -1.375 0 0 0
-1.863 -10.935 -1.372 0 0 0
-1.703 -10.201 -1.266 0 0 0
-1.795 -10.948 -1.372 0 0 0
-1.76 -10.952 -1.372 0 0 0
-1.741 -10.947 -1.371 0 0 0
-1.708 -10.958 -1.372 0 0 0
-1.621 -10.627 -1.324 0 0 0
-1.616 -10.816 -1.35 0 0 0
-1.495 -10.239 -1.267 0 0 0
-1.454 -10.183 -1.258 0 0 0
-1.535 -10.98 -1.371 0 0 0
-1.519 -10.992 -1.373 0 0 0
-1.487 -11.01 -1.375 0 0 0
-1.28 -9.733 -1.191 0 0 0
-1.412 -10.98 -1.369 0 0 0
-1.246 -9.957 -1.222 0 0 0
-1.344 -10.999 -1.37 0 0 0
-1.31 -11.001 -1.37 0 0 0
-1.276 -10.869 -1.351 0 0 0
-1.255 -10.987 -1.367 0 0 0
-1.222 -10.997 -1.368 0 0 0
-1.188 -11.007 -1.369 0 0 0
-1.151 -10.995 -1.367 0 0 0
-1.031 -10.175 -1.25 0 0 0
-0.965 -9.841 -1.202 0 0 0
-1.045 -10.977 -1.363 0 0 0
-1.029 -10.995 -1.365 0 0 0
-0.993 -10.976 -1.362 0 0 0
-0.959 -10.989 -1.363 0 0 0
-0.924 -10.988 -1.363 0 0 0
-0.814 -10.079 -1.233 0 0 0
-0.857 -11.014 -1.366 0 0 0
-0.821 -11.004 -1.364 0 0 0
-0.802 -10.984 -1.361 0 0 0
-0.768 -10.982 -1.36 0 0 0
-0.734 -11.005 -1.363 0 0 0
-0.699 -10.999 -1.362 0 0 0
-0.664 -10.981 -1.359 0 0 0
-0.629 -10.979 -1.359 0 0 0
-0.595 -10.989 -1.36 0 0 0
-0.576 -10.97 -1.357 0 0 0
-0.542 -10.976 -1.357 0 0 0
-0.507 -10.968 -1.356 0 0 0
-0.472 -10.946 -1.353 0 0 0
-0.437 -10.947 -1.353 0 0 0
-0.391 -10.638 -1.309 0 0 0
-0.369 -10.965 -1.355 0 0 0
-0.351 -10.956 -1.354 0 0 0
-0.314 -10.854 -1.339 0 0 0
-0.283 -10.964 -1.354 0 0 0
-0.249 -10.977 -1.356 0 0 0
-0.214 -10.97 -1.355 0 0 0
-0.179 -10.97 -1.355 0 0 0
-0.145 -10.971 -1.355 0 0 0
-0.128 -10.953 -1.352 0 0 0
-0.093 -10.957 -1.353 0 0 0
-0.058 -10.912 -1.347 0 0 0
-0.024 -10.922 -1.348 0 0 0
0.011 -10.528 -1.292 0 0 0
0.044 -10.934 -1.35 0 0 0
0.079 -10.934 -1.35 0 0 0
0.096 -10.94 -1.35 0 0 0
0.12 -9.856 -1.197 0 0 0
0.164 -10.917 -1.347 0 0 0
0.199 -10.906 -1.346 0 0 0
0.232 -10.852 -1.338 0 0 0
0.241 -9.701 -1.176 0 0 0
0.302 -10.908 -1.347 0 0 0
0.319 -10.904 -1.346 0 0 0
0.353 -10.908 -1.347 0 0 0
0.386 -10.88 -1.343 0 0 0
0.421 -10.896 -1.345 0 0 0
0.456 -10.903 -1.347 0 0 0
0.49 -10.911 -1.348 0 0 0
0.516 -10.72 -1.321 0 0 0
0.558 -10.884 -1.345 0 0 0
0.575 -10.881 -1.344 0 0 0
0.592 -10.571 -1.301 0 0 0
0.644 -10.895 -1.347 0 0 0
0.678 -10.887 -1.346 0 0 0
0.712 -10.883 -1.346 0 0 0
0.747 -10.889 -1.347 0 0 0
0.781 -10.892 -1.348 0 0 0
0.798 -10.879 -1.346 0 0 0
0.832 -10.882 -1.347 0 0 0
0.867 -10.884 -1.347 0 0 0
0.901 -10.883 -1.348 0 0 0
0.934 -10.864 -1.345 0 0 0
0.944 -10.589 -1.307 0 0 0
1.002 -10.86 -1.346 0 0 0
1.018 -10.847 -1.344 0 0 0
1.028 -10.587 -1.308 0 0 0
1.005 -10.01 -1.226 0 0 0
1.03 -9.944 -1.217 0 0 0
1.134 -10.636 -1.316 0 0 0
1.189 -10.837 -1.345 0 0 0
1.119 -9.885 -1.21 0 0 0
1.22 -10.649 -1.319 0 0 0
1.242 -10.546 -1.305 0 0 0
1.258 -10.397 -1.284 0 0 0
1.31 -10.554 -1.307 0 0 0
1.344 -10.554 -1.308 0 0 0
1.381 -10.577 -1.312 0 0 0
1.387 -10.368 -1.283 0 0 0
1.433 -10.464 -1.297 0 0 0
1.422 -10.262 -1.268 0 0 0
1.463 -10.32 -1.277 0 0 0
1.436 -9.9 -1.218 0 0 0
1.547 -10.44 -1.296 0 0 0
1.595 -10.537 -1.31 0 0 0
1.59 -10.285 -1.275 0 0 0
1.636 -10.364 -1.287 0 0 0
1.646 -10.324 -1.282 0 0 0
1.608 -9.879 -1.219 0 0 0
1.638 -9.868 -1.218 0 0 0
1.614 -9.531 -1.17 0 0 0
1.684 -9.76 -1.204 0 0 0
1.751 -9.969 -1.235 0 0 0
1.792 -10.017 -1.242 0 0 0
1.837 -10.177 -1.266 0 0 0
1.844 -10.037 -1.246 0 0 0
1.894 -10.127 -1.26 0 0 0
1.903 -10 -1.243 0 0 0
1.94 -10.023 -1.247 0 0 0
1.946 -9.885 -1.228 0 0 0
1.986 -9.927 -1.235 0 0 0
2.047 -10.15 -1.267 0 0 0
2.071 -10.106 -1.262 0 0 0
2.097 -10.07 -1.258 0 0 0
2.135 -10.095 -1.262 0 0 0
2.186 -10.177 -1.275 0 0 0
2.211 -10.141 -1.271 0 0 0
2.217 -10.016 -1.254 0 0 0
2.271 -10.11 -1.269 0 0 0
2.327 -10.286 -1.295 0 0 0
2.357 -10.269 -1.293 0 0 0
2.345 -10.068 -1.265 0 0 0
2.371 -10.038 -1.262 0 0 0
2.471 -10.318 -1.304 0 0 0
2.47 -10.171 -1.283 0 0 0
2.433 -9.882 -1.243 0 0 0
2.519 -10.163 -1.284 0 0 0
2.522 -10.04 -1.267 0 0 0
2.416 -9.485 -1.187 0 0 0
2.622 -10.17 -1.288 0 0 0
2.596 -9.935 -1.255 0 0 0
2.673 -10.103 -1.281 0 0 0
2.669 -9.959 -1.261 0 0 0
2.697 -10.001 -1.268 0 0 0
2.751 -10.076 -1.28 0 0 0
2.737 -9.901 -1.256 0 0 0
2.77 -9.898 -1.257 0 0 0
2.799 -9.884 -1.256 0 0 0
2.877 -10.039 -1.28 0 0 0
2.802 -9.659 -1.225 0 0 0
2.834 -9.713 -1.234 0 0 0
2.953 -10.006 -1.279 0 0 0
2.978 -9.978 -1.276 0 0 0
3.038 -10.064 -1.29 0 0 0
3.05 -9.988 -1.28 0 0 0
3.084 -9.989 -1.282 0 0 0
3.078 -9.859 -1.264 0 0 0
3.15 -9.977 -1.283 0 0 0
3.136 -9.88 -1.269 0 0 0
3.222 -10.044 -1.295 0 0 0
3.241 -9.994 -1.289 0 0 0
3.279 -10.002 -1.292 0 0 0
3.307 -9.983 -1.29 0 0 0
3.323 -9.927 -1.284 0 0 0
3.334 -9.907 -1.281 0 0 0
3.363 -9.891 -1.281 0 0 0
3.394 -9.88 -1.281 0 0 0
3.444 -9.924 -1.289 0 0 0
3.452 -9.845 -1.279 0 0 0
3.511 -9.915 -1.291 0 0 0
3.551 -9.93 -1.295 0 0 0
3.559 -9.904 -1.292 0 0 0
3.585 -9.876 -1.289 0 0 0
3.57 -9.74 -1.27 0 0 0
3.651 -9.864 -1.291 0 0 0
3.657 -9.788 -1.281 0 0 0
3.687 -9.773 -1.28 0 0 0
3.725 -9.781 -1.283 0 0 0
3.767 -9.799 -1.288 0 0 0
3.804 -9.849 -1.296 0 0 0
3.825 -9.813 -1.293 0 0 0
3.838 -9.755 -1.286 0 0 0
3.878 -9.765 -1.289 0 0 0
3.899 -9.73 -1.286 0 0 0
3.957 -9.786 -1.296 0 0 0
3.952 -9.683 -1.282 0 0 0
3.964 -9.67 -1.281 0 0 0
3.984 -9.632 -1.277 0 0 0
4.017 -9.627 -1.278 0 0 0
4.038 -9.592 -1.275 0 0 0
4.074 -9.594 -1.277 0 0 0
4.087 -9.539 -1.271 0 0 0
4.174 -9.661 -1.292 0 0 0
4.14 -9.54 -1.274 0 0 0
4.148 -9.476 -1.266 0 0 0
4.11 -9.309 -1.242 0 0 0
4.236 -9.515 -1.276 0 0 0
4.274 -9.519 -1.279 0 0 0
4.304 -9.506 -1.279 0 0 0
4.355 -9.539 -1.286 0 0 0
4.386 -9.567 -1.292 0 0 0
4.358 -9.427 -1.272 0 0 0
4.425 -9.494 -1.285 0 0 0
4.485 -9.545 -1.295 0 0 0
4.496 -9.491 -1.288 0 0 0
4.527 -9.479 -1.289 0 0 0
4.583 -9.52 -1.297 0 0 0
4.595 -9.506 -1.296 0 0 0
4.627 -9.496 -1.297 0 0 0
4.601 -9.366 -1.279 0 0 0
4.664 -9.421 -1.29 0 0 0
4.698 -9.415 -1.291 0 0 0
4.716 -9.377 -1.288 0 0 0
4.749 -9.369 -1.289 0 0 0
4.806 -9.409 -1.297 0 0 0
4.817 -9.395 -1.296 0 0 0
4.873 -9.431 -1.304 0 0 0
4.883 -9.376 -1.298 0 0 0
4.915 -9.366 -1.299 0 0 0
4.91 -9.286 -1.289 0 0 0
4.834 -9.071 -1.257 0 0 0
4.961 -9.241 -1.287 0 0 0
5.012 -9.301 -1.297 0 0 0
5.048 -9.298 -1.299 0 0 0
4.967 -9.08 -1.267 0 0 0
5.056 -9.174 -1.285 0 0 0
5.145 -9.267 -1.302 0 0 0
4.839 -8.649 -1.205 0 0 0
5.195 -9.221 -1.3 0 0 0
5.202 -9.199 -1.298 0 0 0
5.225 -9.172 -1.296 0 0 0
5.276 -9.195 -1.303 0 0 0
5.287 -9.148 -1.297 0 0 0
5.307 -9.116 -1.295 0 0 0
5.358 -9.136 -1.301 0 0 0
5.392 -9.13 -1.303 0 0 0
5.397 -9.104 -1.3 0 0 0
5.422 -9.082 -1.299 0 0 0
5.46 -9.08 -1.302 0 0 0
5.471 -9.034 -1.297 0 0 0
5.522 -9.054 -1.303 0 0 0
5.582 -9.089 -1.312 0 0 0
5.631 -9.104 -1.317 0 0 0
5.639 -9.054 -1.312 0 0 0
5.606 -8.97 -1.299 0 0 0
5.687 -9.036 -1.313 0 0 0
5.711 -9.011 -1.312 0 0 0
5.742 -8.997 -1.313 0 0 0
5.767 -8.973 -1.312 0 0 0
5.839 -9.024 -1.323 0 0 0
5.826 -8.942 -1.313 0 0 0
5.866 -8.973 -1.319 0 0 0
5.755 -8.742 -1.283 0 0 0
5.895 -8.894 -1.312 0 0 0
5.949 -8.915 -1.319 0 0 0
5.983 -8.905 -1.32 0 0 0
6.006 -8.879 -1.319 0 0 0
6.009 -8.854 -1.317 0 0 0
6.093 -8.917 -1.331 0 0 0
6.067 -8.819 -1.317 0 0 0
6.125 -8.844 -1.325 0 0 0
6.191 -8.88 -1.334 0 0 0
6.191 -8.82 -1.327 0 0 0
6.202 -8.778 -1.323 0 0 0
6.224 -8.75 -1.322 0 0 0
6.252 -8.76 -1.325 0 0 0
6.308 -8.78 -1.332 0 0 0
6.397 -8.846 -1.347 0 0 0
6.392 -8.781 -1.339 0 0 0
6.418 -8.759 -1.339 0 0 0
6.427 -8.713 -1.334 0 0 0
6.477 -8.723 -1.34 0 0 0
6.506 -8.734 -1.343 0 0 0
6.553 -8.74 -1.348 0 0 0
6.6 -8.688 -1.346 0 0 0
6.664 -8.659 -1.348 0 0 0
6.701 -8.65 -1.351 0 0 0
10.521 -6.506 -1.553 0 0 0
9.39 -5.763 -1.361 0 0 0
9.433 -5.749 -1.366 0 0 0
9.517 -5.759 -1.377 0 0 0
11.922 -4.095 -1.586 0 0 0
11.974 -4.071 -1.592 0 0 0
11.996 -4.036 -1.594 0 0 0
11.974 -4.008 -1.589 0 0 0
11.976 -3.966 -1.588 0 0 0
12.027 -3.942 -1.594 0 0 0
12.111 -3.927 -1.604 0 0 0
12.124 -3.889 -1.604 0 0 0
12.111 -3.843 -1.601 0 0 0
12.08 -3.791 -1.594 0 0 0
12.103 -3.778 -1.597 0 0 0
12.156 -3.753 -1.603 0 0 0
12.147 -3.708 -1.6 0 0 0
12.242 -3.695 -1.612 0 0 0
12.235 -3.651 -1.609 0 0 0
12.187 -3.595 -1.601 0 0 0
12.177 -3.551 -1.597 0 0 0
12.191 -3.534 -1.599 0 0 0
12.219 -3.5 -1.601 0 0 0
12.314 -3.486 -1.613 0 0 0
12.258 -3.428 -1.604 0 0 0
12.274 -3.391 -1.604 0 0 0
11.064 -2.738 -1.415 0 0 0
11.181 -2.051 -1.411 0 0 0
11.258 -1.937 -1.419 0 0 0
11.285 -1.905 -1.422 0 0 0
11.342 -1.878 -1.429 0 0 0
11.387 -1.849 -1.435 0 0 0
11.154 -1.775 -1.401 0 0 0
11.334 -1.767 -1.426 0 0 0
11.389 -1.758 -1.433 0 0 0
2.041 14.239 -1.903 0 0 0
1.992 14.22 -1.899 0 0 0
1.949 14.234 -1.9 0 0 0
1.906 14.254 -1.902 0 0 0
1.86 14.254 -1.902 0 0 0
1.835 14.229 -1.898 0 0 0
1.792 14.257 -1.901 0 0 0
1.748 14.264 -1.901 0 0 0
1.703 14.272 -1.901 0 0 0
1.655 14.243 -1.896 0 0 0
1.614 14.286 -1.902 0 0 0
1.567 14.267 -1.898 0 0 0
1.543 14.258 -1.897 0 0 0
1.496 14.243 -1.894 0 0 0
1.453 14.262 -1.896 0 0 0
1.406 14.244 -1.893 0 0 0
1.361 14.243 -1.892 0 0 0
1.316 14.249 -1.892 0 0 0
1.273 14.273 -1.895 0 0 0
1.248 14.245 -1.891 0 0 0
1.205 14.267 -1.893 0 0 0
1.159 14.255 -1.891 0 0 0
1.113 14.242 -1.889 0 0 0
1.068 14.248 -1.889 0 0 0
1.023 14.253 -1.889 0 0 0
0.978 14.244 -1.887 0 0 0
0.935 14.271 -1.891 0 0 0
0.913 14.282 -1.892 0 0 0
0.867 14.269 -1.89 0 0 0
0.823 14.282 -1.891 0 0 0
0.778 14.296 -1.893 0 0 0
0.733 14.297 -1.893 0 0 0
0.688 14.297 -1.893 0 0 0
0.643 14.285 -1.891 0 0 0
0.621 14.294 -1.892 0 0 0
0.574 14.254 -1.886 0 0 0
0.528 14.225 -1.881 0 0 0
0.485 14.254 -1.885 0 0 0
0.439 14.232 -1.882 0 0 0
0.395 14.251 -1.884 0 0 0
0.35 14.246 -1.883 0 0 0
0.305 14.255 -1.885 0 0 0
0.283 14.273 -1.887 0 0 0
0.239 14.317 -1.894 0 0 0
0.194 14.318 -1.894 0 0 0
0.148 14.194 -1.875 0 0 0
0.047 8.986 -1.114 0 0 0
0.019 8.933 -1.107 0 0 0
0.005 8.834 -1.092 0 0 0
-0.023 8.851 -1.095 0 0 0
-0.05 8.808 -1.088 0 0 0
-0.078 8.819 -1.09 0 0 0
-0.105 8.778 -1.084 0 0 0
-0.133 8.763 -1.082 0 0 0
-0.16 8.765 -1.082 0 0 0
-0.174 8.747 -1.08 0 0 0
-0.201 8.74 -1.079 0 0 0
-0.229 8.754 -1.081 0 0 0
-0.256 8.747 -1.08 0 0 0
-0.284 8.762 -1.082 0 0 0
-0.311 8.745 -1.08 0 0 0
-0.338 8.736 -1.079 0 0 0
-0.366 8.741 -1.08 0 0 0
-0.379 8.73 -1.078 0 0 0
-0.406 8.725 -1.078 0 0 0
-0.433 8.714 -1.076 0 0 0
-0.461 8.725 -1.078 0 0 0
-0.488 8.713 -1.077 0 0 0
-0.515 8.706 -1.076 0 0 0
-0.544 8.726 -1.079 0 0 0
-0.556 8.701 -1.075 0 0 0
-0.584 8.713 -1.077 0 0 0
-0.612 8.715 -1.078 0 0 0
-0.639 8.705 -1.077 0 0 0
-0.666 8.695 -1.076 0 0 0
-0.738 8.894 -1.105 0 0 0
-0.731 8.656 -1.071 0 0 0
-0.784 8.634 -1.068 0 0 0
-0.816 8.689 -1.077 0 0 0
-0.846 8.706 -1.079 0 0 0
-0.871 8.681 -1.076 0 0 0
-0.899 8.69 -1.078 0 0 0
-0.926 8.68 -1.077 0 0 0
-0.942 8.7 -1.08 0 0 0
-0.968 8.685 -1.078 0 0 0
-0.997 8.698 -1.081 0 0 0
-1.021 8.671 -1.077 0 0 0
-1.048 8.666 -1.077 0 0 0
-1.078 8.682 -1.08 0 0 0
-1.105 8.68 -1.08 0 0 0
-1.131 8.667 -1.079 0 0 0
-1.145 8.663 -1.078 0 0 0
-1.174 8.675 -1.081 0 0 0
-1.201 8.672 -1.081 0 0 0
-1.228 8.666 -1.08 0 0 0
-1.258 8.676 -1.082 0 0 0
-1.286 8.678 -1.083 0 0 0
-1.312 8.668 -1.082 0 0 0
-1.326 8.668 -1.083 0 0 0
-1.355 8.675 -1.084 0 0 0
-1.38 8.657 -1.082 0 0 0
-1.409 8.664 -1.084 0 0 0
-1.437 8.662 -1.084 0 0 0
-1.468 8.681 -1.088 0 0 0
-1.493 8.661 -1.086 0 0 0
-1.506 8.656 -1.085 0 0 0
-1.539 8.685 -1.09 0 0 0
-1.562 8.654 -1.086 0 0 0
-1.593 8.673 -1.09 0 0 0
-1.62 8.666 -1.09 0 0 0
-1.649 8.67 -1.091 0 0 0
-1.678 8.673 -1.092 0 0 0
-1.702 8.65 -1.09 0 0 0
-1.719 8.669 -1.093 0 0 0
-1.743 8.648 -1.09 0 0 0
-1.777 8.673 -1.095 0 0 0
-1.799 8.643 -1.091 0 0 0
-1.826 8.637 -1.091 0 0 0
-1.859 8.658 -1.095 0 0 0
-1.889 8.662 -1.097 0 0 0
-1.902 8.659 -1.097 0 0 0
-1.926 8.639 -1.095 0 0 0
-1.957 8.649 -1.097 0 0 0
-1.989 8.664 -1.1 0 0 0
-2.014 8.648 -1.099 0 0 0
-2.043 8.651 -1.1 0 0 0
-2.065 8.623 -1.097 0 0 0
-2.084 8.641 -1.1 0 0 0
-2.117 8.656 -1.103 0 0 0
-2.145 8.653 -1.104 0 0 0
-2.174 8.656 -1.105 0 0 0
-2.2 8.643 -1.105 0 0 0
-2.227 8.634 -1.104 0 0 0
-2.258 8.645 -1.107 0 0 0
-2.281 8.622 -1.105 0 0 0
-2.301 8.641 -1.108 0 0 0
-2.33 8.642 -1.109 0 0 0
-2.355 8.627 -1.108 0 0 0
-2.383 8.623 -1.109 0 0 0
-2.423 8.661 -1.116 0 0 0
-2.443 8.625 -1.111 0 0 0
-2.476 8.638 -1.114 0 0 0
-2.494 8.65 -1.117 0 0 0
-2.515 8.623 -1.114 0 0 0
-2.555 8.657 -1.12 0 0 0
-2.584 8.654 -1.121 0 0 0
-2.607 8.635 -1.119 0 0 0
-2.645 8.66 -1.125 0 0 0
-2.675 8.66 -1.126 0 0 0
-2.699 8.642 -1.124 0 0 0
-2.712 8.636 -1.124 0 0 0
-2.753 8.672 -1.131 0 0 0
-2.77 8.632 -1.126 0 0 0
-2.807 8.651 -1.13 0 0 0
-2.844 8.672 -1.135 0 0 0
-3.331 8.743 -1.169 0 0 0
-3.38 8.786 -1.177 0 0 0
-3.402 8.803 -1.18 0 0 0
-3.467 8.886 -1.195 0 0 0
-6.208 9.449 -1.453 0 0 0
-6.208 9.385 -1.445 0 0 0
-6.189 9.324 -1.436 0 0 0
-6.212 9.296 -1.435 0 0 0
-6.209 9.229 -1.427 0 0 0
-6.215 9.175 -1.421 0 0 0
-6.224 9.126 -1.415 0 0 0
-6.221 9.061 -1.407 0 0 0
-6.237 9.023 -1.404 0 0 0
-6.249 8.981 -1.4 0 0 0
-6.242 8.94 -1.395 0 0 0
-6.261 8.908 -1.392 0 0 0
-6.25 8.833 -1.382 0 0 0
-6.245 8.769 -1.374 0 0 0
-6.269 8.744 -1.373 0 0 0
-6.276 8.696 -1.368 0 0 0
-6.288 8.655 -1.365 0 0 0
-6.312 8.659 -1.367 0 0 0
-6.325 8.62 -1.364 0 0 0
-6.371 8.626 -1.368 0 0 0
-6.381 8.584 -1.364 0 0 0
-6.407 8.562 -1.364 0 0 0
-6.435 8.543 -1.364 0 0 0
-6.474 8.539 -1.367 0 0 0
-6.523 8.547 -1.372 0 0 0
-6.876 8.638 -1.415 0 0 0
-7.004 8.769 -1.441 0 0 0
-7.02 8.733 -1.439 0 0 0
-7.021 8.678 -1.432 0 0 0
-8.045 8.431 -1.504 0 0 0
-8.097 8.431 -1.509 0 0 0
-8.135 8.419 -1.512 0 0 0
-8.181 8.413 -1.516 0 0 0
-8.244 8.424 -1.523 0 0 0
-8.283 8.41 -1.526 0 0 0
-8.338 8.414 -1.532 0 0 0
-8.37 8.419 -1.536 0 0 0
-8.407 8.404 -1.538 0 0 0
-8.468 8.411 -1.545 0 0 0
-8.518 8.408 -1.55 0 0 0
-8.558 8.395 -1.553 0 0 0
-8.612 8.394 -1.558 0 0 0
-8.681 8.408 -1.567 0 0 0
-8.724 8.397 -1.571 0 0 0
-8.828 8.417 -1.584 0 0 0
-8.868 8.402 -1.586 0 0 0
-8.934 8.412 -1.594 0 0 0
-9.055 8.471 -1.613 0 0 0
-9.076 8.385 -1.607 0 0 0
-9.379 8.637 -1.664 0 0 0
-9.26 8.474 -1.635 0 0 0
-9.316 8.418 -1.636 0 0 0
-9.344 8.39 -1.636 0 0 0
-9.394 8.382 -1.641 0 0 0
-9.569 8.483 -1.67 0 0 0
-9.536 8.428 -1.661 0 0 0
-11.226 9.606 -1.96 0 0 0
-10.724 9.062 -1.853 0 0 0
-10.681 8.997 -1.842 0 0 0
-10.72 8.972 -1.844 0 0 0
-10.691 8.892 -1.833 0 0 0
-10.678 8.824 -1.825 0 0 0
-10.672 8.763 -1.819 0 0 0
-10.687 8.72 -1.817 0 0 0
-10.698 8.672 -1.813 0 0 0
-10.724 8.665 -1.816 0 0 0
-10.703 8.593 -1.807 0 0 0
-10.731 8.561 -1.807 0 0 0
-10.75 8.521 -1.806 0 0 0
-10.797 8.503 -1.809 0 0 0
-10.841 8.483 -1.813 0 0 0
-10.891 8.467 -1.817 0 0 0
-10.928 8.468 -1.821 0 0 0
-10.984 8.456 -1.827 0 0 0
-11.027 8.434 -1.83 0 0 0
-11.082 8.42 -1.835 0 0 0
-11.129 8.401 -1.839 0 0 0
-11.242 8.431 -1.854 0 0 0
-11.245 8.378 -1.85 0 0 0
-11.265 8.338 -1.849 0 0 0
-11.353 8.375 -1.863 0 0 0
-11.497 8.426 -1.884 0 0 0
-11.474 8.354 -1.875 0 0 0
-11.524 8.335 -1.879 0 0 0
-11.66 8.377 -1.899 0 0 0
-11.684 8.339 -1.899 0 0 0
-11.756 8.335 -1.907 0 0 0
-11.77 8.317 -1.907 0 0 0
-11.889 8.345 -1.924 0 0 0
-11.917 8.309 -1.924 0 0 0
-12.018 8.323 -1.937 0 0 0
-12.138 8.35 -1.954 0 0 0
-14.048 -3.592 -1.92 0 0 0
-14.021 -3.68 -1.919 0 0 0
-14.019 -3.726 -1.921 0 0 0
-14.005 -3.77 -1.92 0 0 0
-14.001 -3.816 -1.922 0 0 0
-13.999 -3.839 -1.922 0 0 0
-13.998 -3.886 -1.924 0 0 0
-13.963 -3.923 -1.92 0 0 0
-13.96 -3.97 -1.922 0 0 0
-13.938 -4.011 -1.92 0 0 0
-13.957 -4.064 -1.925 0 0 0
-13.892 -4.092 -1.917 0 0 0
-13.859 -4.106 -1.913 0 0 0
-13.798 -4.135 -1.906 0 0 0
-13.611 -4.479 -1.895 0 0 0
-13.61 -4.526 -1.897 0 0 0
-13.587 -4.565 -1.896 0 0 0
-13.584 -4.612 -1.897 0 0 0
-13.55 -4.624 -1.893 0 0 0
-13.526 -4.664 -1.892 0 0 0
-8.461 -8.412 -1.545 0 0 0
-8.126 -8.63 -1.533 0 0 0
-8.054 -8.689 -1.532 0 0 0
-8.017 -8.704 -1.53 0 0 0
-7.954 -8.69 -1.523 0 0 0
-7.913 -8.7 -1.52 0 0 0
-7.862 -8.698 -1.515 0 0 0
-7.881 -8.775 -1.525 0 0 0
-7.824 -8.738 -1.515 0 0 0
-7.812 -8.781 -1.519 0 0 0
-7.757 -8.774 -1.513 0 0 0
-7.71 -8.776 -1.508 0 0 0
-7.651 -8.764 -1.501 0 0 0
-7.633 -8.799 -1.503 0 0 0
-7.41 -8.596 -1.46 0 0 0
-7.506 -8.764 -1.487 0 0 0
-7.502 -8.786 -1.489 0 0 0
-7.395 -8.716 -1.471 0 0 0
-7.397 -8.774 -1.478 0 0 0
-7.341 -8.764 -1.472 0 0 0
-7.345 -8.825 -1.479 0 0 0
-7.265 -8.784 -1.467 0 0 0
-7.322 -8.91 -1.486 0 0 0
-7.283 -8.891 -1.481 0 0 0
-7.225 -8.877 -1.474 0 0 0
-7.159 -8.852 -1.465 0 0 0
-7.129 -8.871 -1.464 0 0 0
-7.051 -8.832 -1.453 0 0 0
-7.063 -8.904 -1.462 0 0 0
-7.053 -8.949 -1.466 0 0 0
-6.991 -8.928 -1.458 0 0 0
-6.967 -8.926 -1.456 0 0 0
-6.885 -8.877 -1.443 0 0 0
-6.88 -8.929 -1.448 0 0 0
-6.884 -8.993 -1.456 0 0 0
-6.858 -9.018 -1.457 0 0 0
-6.813 -9.017 -1.453 0 0 0
-6.766 -9.013 -1.448 0 0 0
-6.702 -8.957 -1.436 0 0 0
-6.654 -8.951 -1.431 0 0 0
-6.639 -8.989 -1.434 0 0 0
-6.622 -9.026 -1.437 0 0 0
-6.561 -9.002 -1.429 0 0 0
-6.514 -8.997 -1.424 0 0 0
-6.459 -8.98 -1.418 0 0 0
-6.446 -8.992 -1.418 0 0 0
-6.434 -9.035 -1.422 0 0 0
-6.369 -9.003 -1.413 0 0 0
-6.319 -8.992 -1.407 0 0 0
-6.301 -9.027 -1.41 0 0 0
-6.293 -9.076 -1.415 0 0 0
-6.293 -9.136 -1.422 0 0 0
-6.259 -9.118 -1.417 0 0 0
-6.227 -9.133 -1.417 0 0 0
-6.122 -9.039 -1.397 0 0 0
-6.065 -9.016 -1.389 0 0 0
-6.053 -9.06 -1.393 0 0 0
-6.019 -9.07 -1.392 0 0 0
-5.99 -9.088 -1.392 0 0 0
-5.891 -8.968 -1.369 0 0 0
-5.907 -9.054 -1.381 0 0 0
-5.93 -9.153 -1.395 0 0 0
-5.894 -9.16 -1.393 0 0 0
-5.889 -9.216 -1.399 0 0 0
-5.85 -9.218 -1.397 0 0 0
-5.775 -9.163 -1.384 0 0 0
-5.791 -9.253 -1.396 0 0 0
-5.764 -9.242 -1.393 0 0 0
-5.695 -9.196 -1.382 0 0 0
-5.441 -8.846 -1.319 0 0 0
-5.625 -9.211 -1.378 0 0 0
-5.58 -9.202 -1.374 0 0 0
-5.523 -9.173 -1.366 0 0 0
-5.513 -9.221 -1.371 0 0 0
-5.499 -9.232 -1.371 0 0 0
-5.457 -9.227 -1.368 0 0 0
-5.437 -9.259 -1.37 0 0 0
-5.302 -9.093 -1.339 0 0 0
-5.267 -9.099 -1.338 0 0 0
-5.32 -9.259 -1.362 0 0 0
-5.259 -9.218 -1.352 0 0 0
-5.224 -9.19 -1.346 0 0 0
-5.283 -9.364 -1.372 0 0 0
-5.234 -9.346 -1.367 0 0 0
-5.198 -9.35 -1.365 0 0 0
-5.183 -9.392 -1.369 0 0 0
-4.961 -9.056 -1.31 0 0 0
-5.112 -9.402 -1.365 0 0 0
-4.983 -9.233 -1.334 0 0 0
-5.034 -9.363 -1.355 0 0 0
-4.967 -9.309 -1.343 0 0 0
-4.958 -9.363 -1.349 0 0 0
-4.748 -9.033 -1.293 0 0 0
-4.873 -9.343 -1.341 0 0 0
-4.965 -9.594 -1.38 0 0 0
-4.939 -9.619 -1.381 0 0 0
-4.903 -9.586 -1.375 0 0 0
-4.783 -9.423 -1.345 0 0 0
-4.708 -9.347 -1.331 0 0 0
-4.685 -9.375 -1.333 0 0 0
-4.605 -9.286 -1.316 0 0 0
-4.636 -9.423 -1.336 0 0 0
-4.653 -9.534 -1.351 0 0 0
-4.579 -9.42 -1.332 0 0 0
-4.544 -9.422 -1.33 0 0 0
-4.525 -9.46 -1.334 0 0 0
-4.462 -9.404 -1.322 0 0 0
-4.383 -9.312 -1.305 0 0 0
-4.405 -9.435 -1.323 0 0 0
-4.441 -9.591 -1.346 0 0 0
-4.401 -9.544 -1.337 0 0 0
-4.314 -9.434 -1.317 0 0 0
-4.306 -9.494 -1.325 0 0 0
-4.236 -9.419 -1.31 0 0 0
-4.221 -9.465 -1.316 0 0 0
-4.275 -9.668 -1.346 0 0 0
-4.192 -9.562 -1.327 0 0 0
-4.079 -9.342 -1.291 0 0 0
-4.147 -9.582 -1.327 0 0 0
-4.092 -9.536 -1.318 0 0 0
-4.112 -9.666 -1.336 0 0 0
-4.136 -9.808 -1.357 0 0 0
-4.063 -9.721 -1.341 0 0 0
-3.999 -9.651 -1.328 0 0 0
-3.924 -9.555 -1.311 0 0 0
-3.91 -9.563 -1.311 0 0 0
-3.869 -9.548 -1.307 0 0 0
-3.839 -9.56 -1.307 0 0 0
-3.862 -9.707 -1.328 0 0 0
-3.803 -9.647 -1.317 0 0 0
-3.693 -9.454 -1.284 0 0 0
-3.673 -9.489 -1.288 0 0 0
-3.688 -9.573 -1.3 0 0 0
-3.624 -9.496 -1.286 0 0 0
-3.573 -9.449 -1.277 0 0 0
-3.581 -9.563 -1.293 0 0 0
-3.528 -9.513 -1.284 0 0 0
-3.426 -9.327 -1.253 0 0 0
-3.435 -9.441 -1.269 0 0 0
-3.443 -9.51 -1.279 0 0 0
-3.41 -9.514 -1.278 0 0 0
-3.449 -9.72 -1.308 0 0 0
-3.483 -9.916 -1.337 0 0 0
-3.406 -9.794 -1.317 0 0 0
-3.345 -9.715 -1.303 0 0 0
-3.293 -9.663 -1.293 0 0 0
-3.289 -9.7 -1.298 0 0 0
-3.229 -9.624 -1.285 0 0 0
-3.225 -9.712 -1.297 0 0 0
-3.298 -10.04 -1.345 0 0 0
-3.214 -9.888 -1.321 0 0 0
-3.209 -9.981 -1.333 0 0 0
-3.095 -9.729 -1.293 0 0 0
-3.036 -9.648 -1.279 0 0 0
-2.969 -9.484 -1.253 0 0 0
-3.03 -9.789 -1.299 0 0 0
-3.047 -9.957 -1.323 0 0 0
-2.948 -9.739 -1.288 0 0 0
-2.96 -9.894 -1.31 0 0 0
-2.852 -9.64 -1.27 0 0 0
-2.791 -9.544 -1.254 0 0 0
-2.851 -9.807 -1.294 0 0 0
-2.828 -9.843 -1.298 0 0 0
-2.767 -9.745 -1.282 0 0 0
-2.728 -9.725 -1.277 0 0 0
-2.71 -9.779 -1.284 0 0 0
-2.715 -9.919 -1.304 0 0 0
-2.67 -9.876 -1.296 0 0 0
-2.577 -9.59 -1.252 0 0 0
-2.595 -9.78 -1.28 0 0 0
-2.593 -9.899 -1.297 0 0 0
-2.714 -10.503 -1.386 0 0 0
-2.512 -9.842 -1.286 0 0 0
-2.507 -9.952 -1.301 0 0 0
-2.39 -9.614 -1.249 0 0 0
-2.609 -10.577 -1.393 0 0 0
-2.574 -10.575 -1.392 0 0 0
-2.282 -9.495 -1.228 0 0 0
-2.332 -9.844 -1.28 0 0 0
-2.434 -10.425 -1.366 0 0 0
-2.372 -10.306 -1.347 0 0 0
-2.362 -10.412 -1.361 0 0 0
-2.182 -9.754 -1.262 0 0 0
-2.125 -9.564 -1.233 0 0 0
-2.169 -9.915 -1.284 0 0 0
-2.116 -9.819 -1.269 0 0 0
-2.068 -9.745 -1.257 0 0 0
-2.059 -9.854 -1.272 0 0 0
-2.047 -9.955 -1.286 0 0 0
-2.02 -9.981 -1.289 0 0 0
-2.006 -9.996 -1.291 0 0 0
-1.971 -9.985 -1.288 0 0 0
-1.945 -10.018 -1.293 0 0 0
-1.92 -10.057 -1.297 0 0 0
-1.932 -10.299 -1.332 0 0 0
-1.838 -9.968 -1.282 0 0 0
-1.909 -10.542 -1.367 0 0 0
-1.833 -10.214 -1.318 0 0 0
-1.769 -10.033 -1.29 0 0 0
-1.694 -9.786 -1.253 0 0 0
-1.663 -9.79 -1.252 0 0 0
-1.649 -9.893 -1.267 0 0 0
-1.639 -10.035 -1.287 0 0 0
-1.563 -9.756 -1.245 0 0 0
-1.599 -10.089 -1.294 0 0 0
-1.565 -10.076 -1.291 0 0 0
-1.519 -9.983 -1.277 0 0 0
-1.544 -10.376 -1.334 0 0 0
-1.508 -10.357 -1.331 0 0 0
-1.459 -10.244 -1.313 0 0 0
-1.47 -10.566 -1.36 0 0 0
-1.453 -10.687 -1.377 0 0 0
-1.448 -10.781 -1.391 0 0 0
-1.411 -10.764 -1.388 0 0 0
-1.258 -9.82 -1.248 0 0 0
-1.34 -10.743 -1.383 0 0 0
-1.308 -10.763 -1.386 0 0 0
-1.275 -10.771 -1.386 0 0 0
-1.244 -10.801 -1.39 0 0 0
-1.221 -10.753 -1.383 0 0 0
-1.16 -10.503 -1.345 0 0 0
-1.05 -9.767 -1.237 0 0 0
-1.075 -10.32 -1.317 0 0 0
-1.015 -10.041 -1.276 0 0 0
-0.974 -9.948 -1.262 0 0 0
-0.929 -9.805 -1.24 0 0 0
-0.975 -10.481 -1.339 0 0 0
-0.954 -10.622 -1.36 0 0 0
-0.914 -10.542 -1.347 0 0 0
-0.838 -10.022 -1.271 0 0 0
-0.791 -9.819 -1.241 0 0 0
-0.806 -10.435 -1.331 0 0 0
-0.788 -10.645 -1.361 0 0 0
-0.739 -10.19 -1.294 0 0 0
-0.739 -10.674 -1.365 0 0 0
-0.698 -10.55 -1.346 0 0 0
-0.67 -10.651 -1.361 0 0 0
-0.646 -10.811 -1.384 0 0 0
-0.609 -10.756 -1.375 0 0 0
-0.574 -10.738 -1.373 0 0 0
-0.561 -10.81 -1.383 0 0 0
-0.516 -10.582 -1.349 0 0 0
-0.487 -10.681 -1.364 0 0 0
-0.451 -10.625 -1.355 0 0 0
-0.41 -10.419 -1.325 0 0 0
-0.384 -10.61 -1.353 0 0 0
-0.341 -10.31 -1.309 0 0 0
-0.333 -10.57 -1.347 0 0 0
-0.296 -10.427 -1.325 0 0 0
-0.252 -9.937 -1.254 0 0 0
-0.236 -10.721 -1.368 0 0 0
-0.203 -10.73 -1.369 0 0 0
-0.155 -9.677 -1.216 0 0 0
-0.135 -10.717 -1.367 0 0 0
-0.116 -10.452 -1.329 0 0 0
-0.084 -10.561 -1.345 0 0 0
-0.05 -10.393 -1.32 0 0 0
-0.017 -10.482 -1.333 0 0 0
0.016 -10.662 -1.359 0 0 0
0.05 -10.71 -1.366 0 0 0
0.082 -10.504 -1.336 0 0 0
0.115 -10.555 -1.344 0 0 0
0.131 -10.485 -1.334 0 0 0
0.155 -10.002 -1.263 0 0 0
0.196 -10.433 -1.326 0 0 0
0.226 -10.341 -1.313 0 0 0
0.254 -10.154 -1.286 0 0 0
0.266 -9.529 -1.194 0 0 0
0.323 -10.329 -1.311 0 0 0
0.326 -9.941 -1.255 0 0 0
0.356 -9.922 -1.252 0 0 0
0.415 -10.589 -1.35 0 0 0
0.452 -10.657 -1.36 0 0 0
0.432 -9.54 -1.197 0 0 0
0.488 -10.047 -1.271 0 0 0
0.52 -10.067 -1.274 0 0 0
0.537 -10.084 -1.277 0 0 0
0.575 -10.181 -1.291 0 0 0
0.632 -10.584 -1.351 0 0 0
0.653 -10.398 -1.324 0 0 0
0.68 -10.305 -1.31 0 0 0
0.711 -10.287 -1.308 0 0 0
0.741 -10.252 -1.303 0 0 0
0.754 -10.217 -1.298 0 0 0
0.767 -9.968 -1.262 0 0 0
0.821 -10.24 -1.302 0 0 0
0.866 -10.395 -1.325 0 0 0
0.897 -10.37 -1.322 0 0 0
0.938 -10.456 -1.335 0 0 0
0.967 -10.41 -1.329 0 0 0
0.986 -10.269 -1.309 0 0 0
0.99 -10.149 -1.291 0 0 0
1.004 -9.971 -1.266 0 0 0
1.069 -10.288 -1.313 0 0 0
1.088 -10.157 -1.294 0 0 0
1.126 -10.209 -1.302 0 0 0
1.154 -10.172 -1.297 0 0 0
1.183 -10.142 -1.293 0 0 0
1.176 -9.954 -1.266 0 0 0
1.233 -10.158 -1.297 0 0 0
1.265 -10.154 -1.297 0 0 0
1.293 -10.123 -1.293 0 0 0
1.302 -9.948 -1.267 0 0 0
1.347 -10.044 -1.282 0 0 0
1.373 -9.998 -1.276 0 0 0
1.384 -9.963 -1.271 0 0 0
1.399 -9.847 -1.255 0 0 0
1.446 -9.948 -1.27 0 0 0
1.502 -10.106 -1.294 0 0 0
1.525 -10.047 -1.286 0 0 0
1.543 -9.958 -1.274 0 0 0
1.607 -10.156 -1.304 0 0 0
1.621 -10.142 -1.302 0 0 0
1.614 -9.902 -1.267 0 0 0
1.604 -9.651 -1.231 0 0 0
1.621 -9.572 -1.22 0 0 0
1.675 -9.701 -1.24 0 0 0
1.756 -9.977 -1.282 0 0 0
1.747 -9.753 -1.249 0 0 0
1.816 -9.952 -1.28 0 0 0
1.806 -9.811 -1.259 0 0 0
1.855 -9.902 -1.273 0 0 0
1.885 -9.891 -1.273 0 0 0
1.885 -9.725 -1.249 0 0 0
1.952 -9.902 -1.276 0 0 0
1.919 -9.583 -1.23 0 0 0
2.024 -9.938 -1.283 0 0 0
2.033 -9.906 -1.279 0 0 0
2.084 -9.992 -1.293 0 0 0
2.108 -9.951 -1.288 0 0 0
2.132 -9.909 -1.282 0 0 0
2.168 -9.924 -1.286 0 0 0
2.203 -9.936 -1.288 0 0 0
2.243 -9.968 -1.294 0 0 0
2.249 -9.922 -1.288 0 0 0
2.286 -9.94 -1.292 0 0 0
2.311 -9.907 -1.288 0 0 0
2.335 -9.871 -1.284 0 0 0
2.336 -9.739 -1.265 0 0 0
2.391 -9.831 -1.28 0 0 0
2.442 -9.905 -1.292 0 0 0
2.496 -10.052 -1.315 0 0 0
2.49 -9.899 -1.293 0 0 0
2.517 -9.875 -1.291 0 0 0
2.511 -9.726 -1.269 0 0 0
2.568 -9.817 -1.284 0 0 0
2.615 -9.867 -1.293 0 0 0
2.608 -9.721 -1.272 0 0 0
2.674 -9.842 -1.292 0 0 0
2.697 -9.865 -1.296 0 0 0
2.659 -9.609 -1.258 0 0 0
2.682 -9.573 -1.254 0 0 0
2.751 -9.704 -1.275 0 0 0
2.802 -9.766 -1.286 0 0 0
2.83 -9.745 -1.284 0 0 0
2.814 -9.635 -1.268 0 0 0
2.879 -9.743 -1.286 0 0 0
2.94 -9.836 -1.301 0 0 0
2.951 -9.761 -1.291 0 0 0
3.007 -9.833 -1.304 0 0 0
3.006 -9.721 -1.288 0 0 0
3.054 -9.769 -1.297 0 0 0
3.078 -9.79 -1.301 0 0 0
3.097 -9.745 -1.295 0 0 0
3.116 -9.699 -1.29 0 0 0
3.124 -9.622 -1.28 0 0 0
3.155 -9.612 -1.28 0 0 0
3.211 -9.679 -1.291 0 0 0
3.24 -9.665 -1.291 0 0 0
3.301 -9.744 -1.305 0 0 0
3.291 -9.666 -1.293 0 0 0
3.326 -9.669 -1.295 0 0 0
3.367 -9.688 -1.3 0 0 0
3.382 -9.635 -1.293 0 0 0
3.392 -9.566 -1.284 0 0 0
3.419 -9.548 -1.283 0 0 0
3.45 -9.541 -1.284 0 0 0
3.398 -9.354 -1.256 0 0 0
3.462 -9.436 -1.27 0 0 0
3.536 -9.543 -1.288 0 0 0
3.565 -9.53 -1.288 0 0 0
3.607 -9.549 -1.293 0 0 0
3.647 -9.565 -1.297 0 0 0
3.703 -9.62 -1.308 0 0 0
3.707 -9.586 -1.303 0 0 0
3.723 -9.538 -1.297 0 0 0
3.739 -9.491 -1.292 0 0 0
3.791 -9.535 -1.301 0 0 0
3.817 -9.513 -1.299 0 0 0
3.834 -9.47 -1.294 0 0 0
3.832 -9.381 -1.282 0 0 0
3.827 -9.328 -1.275 0 0 0
3.893 -9.402 -1.288 0 0 0
3.96 -9.48 -1.303 0 0 0
3.978 -9.439 -1.298 0 0 0
4.003 -9.415 -1.296 0 0 0
4.037 -9.414 -1.298 0 0 0
4.061 -9.388 -1.296 0 0 0
4.066 -9.36 -1.293 0 0 0
4.106 -9.371 -1.296 0 0 0
4.12 -9.323 -1.291 0 0 0
4.151 -9.314 -1.291 0 0 0
4.166 -9.269 -1.286 0 0 0
4.242 -9.36 -1.303 0 0 0
4.272 -9.346 -1.303 0 0 0
4.329 -9.392 -1.312 0 0 0
4.329 -9.355 -1.308 0 0 0
4.366 -9.357 -1.31 0 0 0
4.39 -9.331 -1.308 0 0 0
4.39 -9.257 -1.298 0 0 0
4.447 -9.302 -1.308 0 0 0
4.476 -9.286 -1.308 0 0 0
4.508 -9.279 -1.309 0 0 0
4.524 -9.275 -1.309 0 0 0
4.57 -9.295 -1.315 0 0 0
4.587 -9.255 -1.311 0 0 0
4.622 -9.253 -1.313 0 0 0
4.662 -9.26 -1.316 0 0 0
4.627 -9.12 -1.296 0 0 0
4.681 -9.155 -1.304 0 0 0
4.687 -9.132 -1.301 0 0 0
4.719 -9.122 -1.302 0 0 0
4.737 -9.088 -1.299 0 0 0
4.791 -9.12 -1.307 0 0 0
4.841 -9.145 -1.313 0 0 0
4.838 -9.071 -1.304 0 0 0
4.879 -9.078 -1.307 0 0 0
4.869 -9.027 -1.3 0 0 0
4.936 -9.081 -1.312 0 0 0
4.928 -9 -1.301 0 0 0
4.939 -8.953 -1.295 0 0 0
4.996 -8.989 -1.304 0 0 0
4.936 -8.817 -1.278 0 0 0
5.093 -9.03 -1.316 0 0 0
5.127 -9.024 -1.318 0 0 0
5.149 -9.03 -1.32 0 0 0
5.182 -9.021 -1.321 0 0 0
5.167 -8.931 -1.309 0 0 0
5.217 -8.952 -1.315 0 0 0
5.254 -8.951 -1.318 0 0 0
5.262 -8.9 -1.312 0 0 0
5.327 -8.945 -1.323 0 0 0
5.308 -8.882 -1.313 0 0 0
5.344 -8.879 -1.316 0 0 0
5.382 -8.878 -1.318 0 0 0
5.403 -8.85 -1.317 0 0 0
5.472 -8.899 -1.328 0 0 0
5.525 -8.922 -1.335 0 0 0
5.53 -8.9 -1.332 0 0 0
5.587 -8.928 -1.34 0 0 0
5.596 -8.88 -1.335 0 0 0
5.613 -8.846 -1.332 0 0 0
5.642 -8.83 -1.332 0 0 0
5.688 -8.84 -1.337 0 0 0
5.702 -8.803 -1.334 0 0 0
5.726 -8.778 -1.333 0 0 0
5.756 -8.794 -1.337 0 0 0
5.792 -8.789 -1.339 0 0 0
5.861 -8.833 -1.35 0 0 0
5.882 -8.805 -1.349 0 0 0
5.908 -8.783 -1.348 0 0 0
5.961 -8.802 -1.355 0 0 0
5.964 -8.747 -1.348 0 0 0
5.926 -8.663 -1.335 0 0 0
5.973 -8.672 -1.34 0 0 0
5.994 -8.645 -1.338 0 0 0
6.011 -8.612 -1.336 0 0 0
6.033 -8.586 -1.335 0 0 0
6.098 -8.62 -1.344 0 0 0
6.132 -8.611 -1.346 0 0 0
6.17 -8.635 -1.352 0 0 0
6.242 -8.62 -1.356 0 0 0
8.975 -5.756 -1.359 0 0 0
9.04 -5.757 -1.367 0 0 0
9.105 -5.758 -1.375 0 0 0
9.155 -5.75 -1.381 0 0 0
11.601 -4.091 -1.599 0 0 0
11.627 -4.059 -1.601 0 0 0
11.591 -4.005 -1.593 0 0 0
11.644 -3.983 -1.6 0 0 0
11.631 -3.938 -1.595 0 0 0
11.677 -3.912 -1.601 0 0 0
11.662 -3.887 -1.597 0 0 0
11.667 -3.848 -1.596 0 0 0
11.679 -3.811 -1.596 0 0 0
10.713 -2.75 -1.417 0 0 0
10.792 -2.734 -1.428 0 0 0
10.857 -1.912 -1.412 0 0 0
10.942 -1.909 -1.424 0 0 0
10.999 -1.883 -1.432 0 0 0
10.946 -1.839 -1.423 0 0 0
11.038 -1.819 -1.436 0 0 0
11.022 -1.78 -1.433 0 0 0
11.055 -1.75 -1.437 0 0 0
9.446 10.174 -1.929 0 0 0
9.433 10.192 -1.93 0 0 0
9.393 10.213 -1.928 0 0 0
9.373 10.255 -1.931 0 0 0
0.067 8.947 -1.173 0 0 0
0.039 8.951 -1.174 0 0 0
-0.018 8.988 -1.179 0 0 0
-0.045 8.812 -1.152 0 0 0
-0.073 8.794 -1.15 0 0 0
-0.087 8.798 -1.15 0 0 0
-0.117 9.025 -1.185 0 0 0
-0.142 8.766 -1.145 0 0 0
-0.169 8.763 -1.145 0 0 0
-0.197 8.79 -1.149 0 0 0
-0.225 8.792 -1.15 0 0 0
-0.252 8.771 -1.147 0 0 0
-0.266 8.773 -1.147 0 0 0
-0.294 8.784 -1.149 0 0 0
-0.32 8.745 -1.143 0 0 0
-0.347 8.738 -1.142 0 0 0
-0.375 8.743 -1.143 0 0 0
-0.402 8.732 -1.142 0 0 0
-0.429 8.723 -1.14 0 0 0
-0.443 8.726 -1.141 0 0 0
-0.47 8.721 -1.14 0 0 0
-0.498 8.721 -1.141 0 0 0
-0.525 8.716 -1.14 0 0 0
-0.553 8.722 -1.141 0 0 0
-0.581 8.734 -1.143 0 0 0
-0.607 8.704 -1.139 0 0 0
-0.634 8.698 -1.139 0 0 0
-0.649 8.713 -1.141 0 0 0
-0.675 8.705 -1.14 0 0 0
-0.705 8.725 -1.143 0 0 0
-0.73 8.705 -1.141 0 0 0
-0.758 8.7 -1.14 0 0 0
-0.786 8.708 -1.142 0 0 0
-0.841 8.703 -1.142 0 0 0
-0.854 8.701 -1.142 0 0 0
-0.881 8.695 -1.141 0 0 0
-0.909 8.698 -1.142 0 0 0
-0.936 8.687 -1.141 0 0 0
-0.963 8.688 -1.142 0 0 0
-0.991 8.687 -1.142 0 0 0
-1.019 8.688 -1.142 0 0 0
-1.031 8.676 -1.141 0 0 0
-1.06 8.687 -1.143 0 0 0
-1.091 8.713 -1.148 0 0 0
-1.117 8.703 -1.147 0 0 0
-1.143 8.684 -1.144 0 0 0
-1.17 8.683 -1.145 0 0 0
-1.196 8.669 -1.143 0 0 0
-1.211 8.675 -1.144 0 0 0
-1.24 8.683 -1.146 0 0 0
-1.266 8.669 -1.145 0 0 0
-1.293 8.667 -1.145 0 0 0
-1.321 8.669 -1.146 0 0 0
-1.349 8.669 -1.146 0 0 0
-1.375 8.654 -1.145 0 0 0
-1.406 8.675 -1.149 0 0 0
-1.419 8.667 -1.148 0 0 0
-1.448 8.673 -1.149 0 0 0
-1.475 8.67 -1.15 0 0 0
-1.504 8.677 -1.152 0 0 0
-1.531 8.666 -1.151 0 0 0
-1.559 8.669 -1.152 0 0 0
-1.557 8.499 -1.126 0 0 0
-1.598 8.648 -1.15 0 0 0
-1.628 8.663 -1.153 0 0 0
-1.722 8.86 -1.185 0 0 0
-1.714 8.666 -1.156 0 0 0
-1.74 8.655 -1.155 0 0 0
-1.767 8.65 -1.155 0 0 0
-1.781 8.651 -1.155 0 0 0
-1.81 8.655 -1.157 0 0 0
-1.837 8.647 -1.157 0 0 0
-1.865 8.643 -1.157 0 0 0
-1.895 8.653 -1.159 0 0 0
-1.923 8.651 -1.16 0 0 0
-1.949 8.637 -1.159 0 0 0
-1.978 8.64 -1.16 0 0 0
-1.993 8.645 -1.162 0 0 0
-2.022 8.644 -1.162 0 0 0
-2.049 8.64 -1.163 0 0 0
-2.077 8.637 -1.163 0 0 0
-2.108 8.644 -1.165 0 0 0
-2.136 8.641 -1.166 0 0 0
-2.164 8.638 -1.167 0 0 0
-2.18 8.645 -1.168 0 0 0
-2.207 8.638 -1.168 0 0 0
-2.238 8.646 -1.171 0 0 0
-2.266 8.643 -1.171 0 0 0
-2.295 8.643 -1.172 0 0 0
-2.324 8.642 -1.173 0 0 0
-2.353 8.64 -1.174 0 0 0
-2.378 8.627 -1.173 0 0 0
-2.398 8.644 -1.177 0 0 0
-2.424 8.635 -1.176 0 0 0
-2.452 8.629 -1.177 0 0 0
-2.482 8.633 -1.178 0 0 0
-2.513 8.638 -1.181 0 0 0
-2.54 8.628 -1.18 0 0 0
-2.571 8.634 -1.182 0 0 0
-2.588 8.641 -1.184 0 0 0
-2.612 8.623 -1.183 0 0 0
-2.64 8.619 -1.183 0 0 0
-2.675 8.637 -1.188 0 0 0
-2.7 8.619 -1.186 0 0 0
-2.734 8.633 -1.19 0 0 0
-2.764 8.634 -1.191 0 0 0
-2.791 8.625 -1.191 0 0 0
-2.808 8.632 -1.193 0 0 0
-2.842 8.644 -1.196 0 0 0
-2.872 8.642 -1.198 0 0 0
-2.901 8.639 -1.198 0 0 0
-2.933 8.647 -1.201 0 0 0
-2.959 8.632 -1.2 0 0 0
-2.99 8.634 -1.202 0 0 0
-3.008 8.644 -1.205 0 0 0
-3.037 8.64 -1.205 0 0 0
-3.075 8.66 -1.21 0 0 0
-3.099 8.641 -1.209 0 0 0
-3.132 8.648 -1.212 0 0 0
-3.163 8.648 -1.213 0 0 0
-3.193 8.647 -1.215 0 0 0
-3.233 8.67 -1.22 0 0 0
-3.253 8.684 -1.223 0 0 0
-3.275 8.659 -1.221 0 0 0
-6.225 9.612 -1.557 0 0 0
-6.231 9.556 -1.55 0 0 0
-6.251 9.522 -1.547 0 0 0
-6.213 9.398 -1.528 0 0 0
-6.235 9.367 -1.526 0 0 0
-6.233 9.301 -1.518 0 0 0
-6.22 9.217 -1.506 0 0 0
-6.268 9.258 -1.515 0 0 0
-6.136 9.001 -1.471 0 0 0
-6.242 8.708 -1.444 0 0 0
-6.28 8.703 -1.447 0 0 0
-6.281 8.646 -1.44 0 0 0
-6.309 8.628 -1.44 0 0 0
-6.334 8.605 -1.439 0 0 0
-6.362 8.586 -1.44 0 0 0
-6.373 8.573 -1.439 0 0 0
-6.402 8.556 -1.44 0 0 0
-6.435 8.544 -1.441 0 0 0
-6.48 8.548 -1.446 0 0 0
-6.601 8.539 -1.456 0 0 0
-6.741 8.693 -1.488 0 0 0
-6.733 8.627 -1.479 0 0 0
-6.75 8.592 -1.476 0 0 0
-6.794 8.592 -1.481 0 0 0
-6.808 8.555 -1.477 0 0 0
-6.884 8.596 -1.49 0 0 0
-7.066 8.767 -1.527 0 0 0
-7.092 8.743 -1.527 0 0 0
-7.1 8.724 -1.526 0 0 0
-7.101 8.67 -1.519 0 0 0
-7.098 8.611 -1.512 0 0 0
-7.171 8.48 -1.504 0 0 0
-7.199 8.485 -1.507 0 0 0
-7.237 8.476 -1.51 0 0 0
-7.276 8.468 -1.513 0 0 0
-7.323 8.469 -1.518 0 0 0
-7.359 8.457 -1.52 0 0 0
-7.406 8.458 -1.525 0 0 0
-7.447 8.451 -1.528 0 0 0
-7.492 8.448 -1.532 0 0 0
-7.529 8.463 -1.538 0 0 0
-7.58 8.467 -1.544 0 0 0
-7.619 8.456 -1.546 0 0 0
-7.661 8.45 -1.55 0 0 0
-7.708 8.448 -1.554 0 0 0
-7.736 8.425 -1.555 0 0 0
-7.801 8.443 -1.564 0 0 0
-7.84 8.458 -1.569 0 0 0
-8.843 8.415 -1.673 0 0 0
-8.994 8.479 -1.696 0 0 0
-9.088 8.515 -1.71 0 0 0
-9.115 8.486 -1.71 0 0 0
-9.121 8.439 -1.706 0 0 0
-9.12 8.385 -1.7 0 0 0
-9.257 8.404 -1.718 0 0 0
-9.291 8.408 -1.722 0 0 0
-9.348 8.407 -1.729 0 0 0
-9.359 8.363 -1.725 0 0 0
-9.439 8.382 -1.736 0 0 0
-9.559 8.435 -1.756 0 0 0
-12.038 9.976 -2.198 0 0 0
-12.071 9.94 -2.198 0 0 0
-12.099 9.899 -2.198 0 0 0
-12.121 9.853 -2.196 0 0 0
-12.143 9.808 -2.194 0 0 0
-12.175 9.771 -2.194 0 0 0
-12.201 9.729 -2.193 0 0 0
-12.204 9.7 -2.191 0 0 0
-12.239 9.665 -2.192 0 0 0
-12.255 9.616 -2.189 0 0 0
-12.289 9.58 -2.19 0 0 0
-12.302 9.528 -2.186 0 0 0
-12.313 9.474 -2.183 0 0 0
-12.356 9.446 -2.185 0 0 0
-12.348 9.409 -2.181 0 0 0
-13.341 -3.484 -1.915 0 0 0
-13.34 -3.528 -1.916 0 0 0
-13.307 -3.564 -1.913 0 0 0
-13.292 -3.605 -1.912 0 0 0
-13.266 -3.643 -1.91 0 0 0
-13.248 -3.683 -1.909 0 0 0
-13.231 -3.745 -1.909 0 0 0
-13.204 -3.782 -1.907 0 0 0
-13.198 -3.826 -1.908 0 0 0
-13.214 -3.875 -1.912 0 0 0
-13.173 -3.908 -1.908 0 0 0
-13.188 -3.958 -1.912 0 0 0
-13.138 -3.965 -1.905 0 0 0
-12.946 -4.288 -1.892 0 0 0
-12.924 -4.326 -1.89 0 0 0
-12.939 -4.421 -1.897 0 0 0
-12.957 -4.473 -1.902 0 0 0
-12.909 -4.502 -1.897 0 0 0
-12.902 -4.522 -1.897 0 0 0
-12.88 -4.56 -1.896 0 0 0
-12.801 -4.577 -1.885 0 0 0
-11.281 -6.807 -1.821 0 0 0
-11.19 -6.922 -1.818 0 0 0
-11.207 -6.981 -1.825 0 0 0
-11.106 -6.967 -1.811 0 0 0
-11.092 -7.007 -1.813 0 0 0
-7.283 -8.551 -1.523 0 0 0
-7.237 -8.606 -1.525 0 0 0
-7.082 -8.667 -1.517 0 0 0
-7.035 -8.721 -1.519 0 0 0
-6.98 -8.681 -1.509 0 0 0
-6.974 -8.729 -1.514 0 0 0
-6.96 -8.768 -1.517 0 0 0
-6.894 -8.742 -1.508 0 0 0
-6.755 -8.622 -1.481 0 0 0
-6.799 -8.734 -1.498 0 0 0
-6.723 -8.693 -1.486 0 0 0
-6.706 -8.699 -1.485 0 0 0
-6.682 -8.724 -1.486 0 0 0
-6.628 -8.711 -1.479 0 0 0
-6.587 -8.714 -1.476 0 0 0
-6.571 -8.749 -1.479 0 0 0
-6.518 -8.736 -1.472 0 0 0
-6.48 -8.743 -1.47 0 0 0
-6.494 -8.789 -1.477 0 0 0
-6.471 -8.816 -1.478 0 0 0
-6.419 -8.804 -1.472 0 0 0
-6.378 -8.805 -1.468 0 0 0
-6.323 -8.788 -1.461 0 0 0
-6.312 -8.831 -1.465 0 0 0
-6.264 -8.822 -1.46 0 0 0
-6.129 -8.662 -1.428 0 0 0
-6.233 -8.867 -1.463 0 0 0
-6.207 -8.888 -1.463 0 0 0
-6.17 -8.895 -1.461 0 0 0
-6.134 -8.903 -1.459 0 0 0
-6.063 -8.86 -1.447 0 0 0
-6.046 -8.895 -1.45 0 0 0
-5.998 -8.885 -1.445 0 0 0
-5.96 -8.858 -1.438 0 0 0
-5.94 -8.888 -1.44 0 0 0
-5.882 -8.863 -1.432 0 0 0
-5.881 -8.921 -1.439 0 0 0
-5.826 -8.898 -1.432 0 0 0
-5.739 -8.827 -1.415 0 0 0
-5.788 -8.962 -1.437 0 0 0
-5.726 -8.898 -1.424 0 0 0
-5.672 -8.875 -1.416 0 0 0
-5.64 -8.886 -1.415 0 0 0
-5.59 -8.87 -1.409 0 0 0
-5.301 -8.473 -1.334 0 0 0
-5.568 -8.959 -1.418 0 0 0
-5.556 -9.001 -1.423 0 0 0
-5.503 -8.948 -1.412 0 0 0
-5.495 -8.997 -1.418 0 0 0
-5.437 -8.967 -1.409 0 0 0
-5.332 -8.857 -1.386 0 0 0
-5.342 -8.937 -1.398 0 0 0
-5.355 -9.021 -1.41 0 0 0
-5.298 -8.991 -1.401 0 0 0
-5.292 -9.045 -1.408 0 0 0
-5.251 -9.007 -1.4 0 0 0
-5.155 -8.907 -1.379 0 0 0
-5.223 -9.089 -1.408 0 0 0
-5.143 -9.017 -1.393 0 0 0
-5.068 -8.95 -1.378 0 0 0
-5.103 -9.078 -1.398 0 0 0
-5.07 -9.087 -1.397 0 0 0
-5.016 -9.024 -1.384 0 0 0
-5.002 -9.064 -1.388 0 0 0
-4.875 -8.901 -1.357 0 0 0
-4.944 -9.095 -1.388 0 0 0
-4.763 -8.829 -1.339 0 0 0
-4.784 -8.935 -1.355 0 0 0
-4.798 -9.028 -1.369 0 0 0
-4.776 -9.022 -1.366 0 0 0
-4.684 -8.916 -1.345 0 0 0
-4.689 -8.994 -1.356 0 0 0
-4.669 -9.024 -1.359 0 0 0
-4.653 -9.064 -1.363 0 0 0
-4.641 -9.11 -1.369 0 0 0
-4.595 -9.089 -1.363 0 0 0
-4.561 -9.057 -1.356 0 0 0
-4.572 -9.151 -1.37 0 0 0
-4.553 -9.185 -1.373 0 0 0
-4.53 -9.212 -1.375 0 0 0
-4.454 -9.128 -1.358 0 0 0
-4.429 -9.151 -1.36 0 0 0
-4.353 -9.067 -1.343 0 0 0
-4.354 -9.106 -1.349 0 0 0
-4.349 -9.17 -1.357 0 0 0
-4.331 -9.205 -1.361 0 0 0
-4.321 -9.259 -1.368 0 0 0
-4.275 -9.235 -1.361 0 0 0
-4.238 -9.232 -1.359 0 0 0
-4.221 -9.271 -1.363 0 0 0
-4.182 -9.263 -1.359 0 0 0
-4.157 -9.247 -1.356 0 0 0
-4.121 -9.244 -1.353 0 0 0
-4.069 -9.205 -1.344 0 0 0
-4.051 -9.243 -1.348 0 0 0
-4.025 -9.263 -1.35 0 0 0
-4.002 -9.29 -1.352 0 0 0
-3.975 -9.308 -1.353 0 0 0
-3.943 -9.272 -1.346 0 0 0
-3.907 -9.27 -1.344 0 0 0
-3.881 -9.29 -1.345 0 0 0
-3.878 -9.364 -1.355 0 0 0
-3.818 -9.303 -1.343 0 0 0
-3.761 -9.247 -1.332 0 0 0
-3.766 -9.343 -1.346 0 0 0
-3.738 -9.316 -1.34 0 0 0
-3.723 -9.363 -1.346 0 0 0
-3.706 -9.405 -1.351 0 0 0
-3.628 -9.294 -1.331 0 0 0
-3.602 -9.314 -1.332 0 0 0
-3.568 -9.313 -1.33 0 0 0
-3.535 -9.315 -1.329 0 0 0
-3.512 -9.298 -1.325 0 0 0
-3.451 -9.224 -1.311 0 0 0
-3.453 -9.318 -1.325 0 0 0
-3.419 -9.316 -1.323 0 0 0
-3.384 -9.312 -1.32 0 0 0
-3.339 -9.278 -1.313 0 0 0
-3.343 -9.381 -1.328 0 0 0
-3.341 -9.47 -1.341 0 0 0
-3.313 -9.438 -1.335 0 0 0
-3.25 -9.353 -1.319 0 0 0
-3.178 -9.24 -1.299 0 0 0
-3.215 -9.442 -1.331 0 0 0
-3.208 -9.52 -1.341 0 0 0
-3.134 -9.399 -1.32 0 0 0
-3.119 -9.45 -1.327 0 0 0
-3.121 -9.507 -1.335 0 0 0
-3.098 -9.538 -1.339 0 0 0
-3.079 -9.581 -1.344 0 0 0
-3.01 -9.47 -1.325 0 0 0
-2.978 -9.472 -1.324 0 0 0
-2.954 -9.499 -1.326 0 0 0
-2.916 -9.483 -1.322 0 0 0
-2.907 -9.507 -1.325 0 0 0
-2.899 -9.586 -1.337 0 0 0
-2.846 -9.521 -1.325 0 0 0
-2.836 -9.596 -1.335 0 0 0
-2.734 -9.36 -1.296 0 0 0
-2.791 -9.665 -1.344 0 0 0
-2.684 -9.41 -1.301 0 0 0
-2.693 -9.496 -1.315 0 0 0
-2.659 -9.491 -1.312 0 0 0
-2.66 -9.608 -1.33 0 0 0
-2.607 -9.534 -1.317 0 0 0
-2.625 -9.719 -1.345 0 0 0
-2.565 -9.617 -1.327 0 0 0
-2.547 -9.671 -1.335 0 0 0
-2.509 -9.65 -1.33 0 0 0
-2.46 -9.524 -1.309 0 0 0
-2.443 -9.583 -1.318 0 0 0
-2.423 -9.629 -1.324 0 0 0
-2.405 -9.685 -1.331 0 0 0
-2.359 -9.633 -1.322 0 0 0
-2.317 -9.588 -1.314 0 0 0
-2.334 -9.792 -1.344 0 0 0
-2.309 -9.757 -1.338 0 0 0
-2.283 -9.783 -1.341 0 0 0
-2.246 -9.763 -1.337 0 0 0
-2.199 -9.701 -1.326 0 0 0
-2.132 -9.546 -1.301 0 0 0
-2.14 -9.72 -1.327 0 0 0
-2.113 -9.746 -1.33 0 0 0
-2.093 -9.728 -1.327 0 0 0
-2.038 -9.619 -1.309 0 0 0
-2.005 -9.612 -1.307 0 0 0
-2 -9.738 -1.325 0 0 0
-1.945 -9.628 -1.307 0 0 0
-1.968 -9.9 -1.349 0 0 0
-1.893 -9.681 -1.314 0 0 0
-1.865 -9.622 -1.304 0 0 0
-1.866 -9.787 -1.329 0 0 0
-1.818 -9.703 -1.315 0 0 0
-1.792 -9.73 -1.318 0 0 0
-1.752 -9.687 -1.311 0 0 0
-1.733 -9.753 -1.32 0 0 0
-1.689 -9.684 -1.308 0 0 0
-1.645 -9.612 -1.296 0 0 0
-1.63 -9.614 -1.296 0 0 0
-1.602 -9.637 -1.299 0 0 0
-1.561 -9.572 -1.288 0 0 0
-1.547 -9.678 -1.304 0 0 0
-1.535 -9.798 -1.322 0 0 0
-1.516 -9.879 -1.334 0 0 0
-1.463 -9.741 -1.311 0 0 0
-1.461 -9.831 -1.325 0 0 0
-1.426 -9.808 -1.321 0 0 0
-1.378 -9.694 -1.302 0 0 0
-1.363 -9.805 -1.319 0 0 0
-1.334 -9.821 -1.321 0 0 0
-1.301 -9.812 -1.319 0 0 0
-1.264 -9.773 -1.312 0 0 0
-1.259 -9.849 -1.324 0 0 0
-1.219 -9.785 -1.313 0 0 0
-1.215 -10.006 -1.347 0 0 0
-1.163 -9.837 -1.32 0 0 0
-1.148 -9.976 -1.341 0 0 0
-1.088 -9.732 -1.303 0 0 0
-1.067 -9.818 -1.315 0 0 0
-1.051 -9.814 -1.315 0 0 0
-1.029 -9.902 -1.328 0 0 0
-0.981 -9.736 -1.301 0 0 0
-0.967 -9.912 -1.328 0 0 0
-0.929 -9.842 -1.317 0 0 0
-0.902 -9.88 -1.322 0 0 0
-0.858 -9.743 -1.301 0 0 0
-0.847 -9.8 -1.309 0 0 0
-0.823 -9.881 -1.321 0 0 0
-0.791 -9.862 -1.318 0 0 0
-0.749 -9.729 -1.297 0 0 0
-0.734 -9.936 -1.329 0 0 0
-0.693 -9.81 -1.309 0 0 0
-0.661 -9.787 -1.305 0 0 0
-0.658 -9.973 -1.334 0 0 0
-0.594 -9.478 -1.257 0 0 0
-0.582 -9.758 -1.3 0 0 0
-0.566 -10.016 -1.339 0 0 0
-0.535 -10.024 -1.34 0 0 0
-0.505 -10.059 -1.345 0 0 0
-0.467 -9.934 -1.326 0 0 0
-0.45 -9.89 -1.319 0 0 0
-0.418 -9.883 -1.318 0 0 0
-0.375 -9.602 -1.275 0 0 0
-0.35 -9.725 -1.293 0 0 0
-0.325 -9.89 -1.318 0 0 0
-0.298 -10.024 -1.339 0 0 0
-0.265 -9.954 -1.328 0 0 0
-0.232 -9.881 -1.317 0 0 0
-0.216 -9.872 -1.315 0 0 0
-0.182 -9.762 -1.298 0 0 0
-0.145 -9.402 -1.243 0 0 0
-0.121 -9.751 -1.296 0 0 0
-0.09 -9.755 -1.297 0 0 0
-0.061 -9.872 -1.315 0 0 0
-0.03 -9.886 -1.317 0 0 0
-0.014 -9.927 -1.323 0 0 0
0.017 -9.546 -1.265 0 0 0
0.048 -9.878 -1.316 0 0 0
0.078 -9.797 -1.303 0 0 0
0.11 -9.913 -1.321 0 0 0
0.139 -9.756 -1.297 0 0 0
0.167 -9.568 -1.268 0 0 0
0.185 -9.704 -1.289 0 0 0
0.219 -9.927 -1.324 0 0 0
0.247 -9.776 -1.301 0 0 0
0.279 -9.815 -1.307 0 0 0
0.308 -9.758 -1.298 0 0 0
0.336 -9.674 -1.285 0 0 0
0.374 -9.873 -1.316 0 0 0
0.391 -9.916 -1.323 0 0 0
0.421 -9.887 -1.318 0 0 0
0.455 -9.957 -1.329 0 0 0
0.485 -9.927 -1.325 0 0 0
0.513 -9.861 -1.315 0 0 0
0.542 -9.824 -1.31 0 0 0
0.571 -9.786 -1.304 0 0 0
0.601 -9.767 -1.301 0 0 0
0.616 -9.774 -1.303 0 0 0
0.65 -9.825 -1.311 0 0 0
0.677 -9.758 -1.301 0 0 0
0.712 -9.821 -1.311 0 0 0
0.744 -9.826 -1.312 0 0 0
0.766 -9.715 -1.295 0 0 0
0.794 -9.683 -1.291 0 0 0
0.816 -9.757 -1.302 0 0 0
0.85 -9.804 -1.31 0 0 0
0.887 -9.864 -1.32 0 0 0
0.915 -9.826 -1.314 0 0 0
0.946 -9.833 -1.316 0 0 0
0.973 -9.79 -1.31 0 0 0
1.004 -9.787 -1.31 0 0 0
1.024 -9.829 -1.316 0 0 0
1.062 -9.894 -1.327 0 0 0
1.081 -9.783 -1.31 0 0 0
1.108 -9.74 -1.304 0 0 0
1.138 -9.737 -1.304 0 0 0
1.167 -9.713 -1.301 0 0 0
1.194 -9.686 -1.298 0 0 0
1.204 -9.643 -1.291 0 0 0
1.231 -9.606 -1.286 0 0 0
1.263 -9.621 -1.289 0 0 0
1.293 -9.615 -1.289 0 0 0
1.326 -9.627 -1.291 0 0 0
1.35 -9.584 -1.285 0 0 0
1.402 -9.728 -1.308 0 0 0
1.437 -9.759 -1.314 0 0 0
1.442 -9.686 -1.303 0 0 0
1.48 -9.732 -1.311 0 0 0
1.514 -9.747 -1.314 0 0 0
1.521 -9.59 -1.29 0 0 0
1.557 -9.626 -1.296 0 0 0
1.537 -9.309 -1.248 0 0 0
1.628 -9.681 -1.306 0 0 0
1.642 -9.67 -1.305 0 0 0
1.662 -9.603 -1.295 0 0 0
1.693 -9.601 -1.296 0 0 0
1.736 -9.672 -1.308 0 0 0
1.755 -9.602 -1.298 0 0 0
1.79 -9.622 -1.302 0 0 0
1.823 -9.63 -1.304 0 0 0
1.844 -9.658 -1.309 0 0 0
1.869 -9.627 -1.305 0 0 0
1.903 -9.639 -1.308 0 0 0
1.926 -9.594 -1.301 0 0 0
1.971 -9.665 -1.314 0 0 0
2.002 -9.661 -1.314 0 0 0
1.967 -9.339 -1.265 0 0 0
2.055 -9.686 -1.319 0 0 0
2.096 -9.73 -1.327 0 0 0
2.132 -9.748 -1.331 0 0 0
2.162 -9.738 -1.331 0 0 0
2.149 -9.538 -1.3 0 0 0
