-3.757510 -0.874400 0.611033 0.000000 0.000000 0.000000 
-3.136040 -0.729202 -0.281687 0.000000 0.000000 0.000000 
-3.763440 -0.874396 0.751024 0.000000 0.000000 0.000000 
-3.153690 -0.732145 -0.169673 0.000000 0.000000 0.000000 
-3.766290 -0.873673 0.892606 0.000000 0.000000 0.000000 
-3.185060 -0.738258 -0.057069 0.000000 0.000000 0.000000 
-3.752630 -0.869812 1.032170 0.000000 0.000000 0.000000 
-0.856567 -0.197282 -0.235525 0.000000 0.000000 0.000000 
-3.201810 -0.736841 0.057349 0.000000 0.000000 0.000000 
-0.943890 -0.217047 -0.223601 0.000000 0.000000 0.000000 
-3.371410 -0.774632 0.181292 0.000000 0.000000 0.000000 
-1.084900 -0.249272 -0.216377 0.000000 0.000000 0.000000 
-3.374970 -0.774832 0.302953 0.000000 0.000000 0.000000 
-2.537630 -0.582128 -0.412361 0.000000 0.000000 0.000000 
-3.724710 -0.853756 0.469197 0.000000 0.000000 0.000000 
-3.132750 -0.717496 -0.394613 0.000000 0.000000 0.000000 
-3.749140 -0.857979 0.609156 0.000000 0.000000 0.000000 
-3.140510 -0.718695 -0.281862 0.000000 0.000000 0.000000 
-3.777950 -0.863879 0.753314 0.000000 0.000000 0.000000 
-3.171800 -0.724691 -0.170511 0.000000 0.000000 0.000000 
-3.765520 -0.859653 0.891706 0.000000 0.000000 0.000000 
-3.211010 -0.732472 -0.057488 0.000000 0.000000 0.000000 
-3.744490 -0.853476 1.029060 0.000000 0.000000 0.000000 
-0.857251 -0.194291 -0.235525 0.000000 0.000000 0.000000 
-3.214110 -0.727869 0.057523 0.000000 0.000000 0.000000 
-0.944642 -0.213751 -0.223601 0.000000 0.000000 0.000000 
-3.377850 -0.764330 0.181501 0.000000 0.000000 0.000000 
-1.080020 -0.244184 -0.215233 0.000000 0.000000 0.000000 
-3.369880 -0.761290 0.302256 0.000000 0.000000 0.000000 
-2.531940 -0.571527 -0.411110 0.000000 0.000000 0.000000 
-3.677320 -0.829394 0.462860 0.000000 0.000000 0.000000 
-3.139110 -0.707429 -0.395100 0.000000 0.000000 0.000000 
-3.755960 -0.845754 0.609782 0.000000 0.000000 0.000000 
-3.168270 -0.713418 -0.284128 0.000000 0.000000 0.000000 
-3.765620 -0.847239 0.750261 0.000000 0.000000 0.000000 
-3.302920 -0.742528 -0.177419 0.000000 0.000000 0.000000 
-3.768500 -0.846504 0.891706 0.000000 0.000000 0.000000 
-3.418420 -0.767241 -0.061153 0.000000 0.000000 0.000000 
-3.739760 -0.839362 1.026990 0.000000 0.000000 0.000000 
-0.857924 -0.191297 -0.235525 0.000000 0.000000 0.000000 
-3.201020 -0.713166 0.057244 0.000000 0.000000 0.000000 
-0.945383 -0.210452 -0.223601 0.000000 0.000000 0.000000 
-3.390250 -0.754704 0.182024 0.000000 0.000000 0.000000 
-1.082780 -0.240839 -0.215614 0.000000 0.000000 0.000000 
-3.372520 -0.749522 0.302256 0.000000 0.000000 0.000000 
-2.526210 -0.560972 -0.409858 0.000000 0.000000 0.000000 
-3.656940 -0.811393 0.459935 0.000000 0.000000 0.000000 
-3.766610 -0.834347 0.611033 0.000000 0.000000 0.000000 
-3.378880 -0.748460 -0.302779 0.000000 0.000000 0.000000 
-3.753220 -0.830695 0.747208 0.000000 0.000000 0.000000 
-3.404950 -0.752989 -0.182757 0.000000 0.000000 0.000000 
-3.771430 -0.833344 0.891706 0.000000 0.000000 0.000000 
-3.424990 -0.756166 -0.061223 0.000000 0.000000 0.000000 
-3.746440 -0.827136 1.028030 0.000000 0.000000 0.000000 
-0.858553 -0.188451 -0.235525 0.000000 0.000000 0.000000 
-3.201410 -0.702119 0.057209 0.000000 0.000000 0.000000 
-0.930847 -0.203979 -0.220002 0.000000 0.000000 0.000000 
-3.371400 -0.738166 0.180873 0.000000 0.000000 0.000000 
-1.083570 -0.237247 -0.215614 0.000000 0.000000 0.000000 
-3.371090 -0.737483 0.301907 0.000000 0.000000 0.000000 
-2.531910 -0.553435 -0.410484 0.000000 0.000000 0.000000 
-3.671240 -0.801803 0.461397 0.000000 0.000000 0.000000 
-2.719110 -0.593359 -0.341722 0.000000 0.000000 0.000000 
-3.761490 -0.820825 0.609782 0.000000 0.000000 0.000000 
-3.412490 -0.744042 -0.305568 0.000000 0.000000 0.000000 
-3.757880 -0.818662 0.747590 0.000000 0.000000 0.000000 
-3.405470 -0.741268 -0.182652 0.000000 0.000000 0.000000 
-3.770370 -0.820005 0.890806 0.000000 0.000000 0.000000 
-3.431380 -0.745653 -0.061293 0.000000 0.000000 0.000000 
-3.745530 -0.813233 1.026990 0.000000 0.000000 0.000000 
-0.821439 -0.177301 -0.225173 0.000000 0.000000 0.000000 
-3.213620 -0.693048 0.057384 0.000000 0.000000 0.000000 
-0.946793 -0.204012 -0.223601 0.000000 0.000000 0.000000 
-3.381640 -0.728665 0.181292 0.000000 0.000000 0.000000 
-1.082470 -0.233050 -0.215233 0.000000 0.000000 0.000000 
-3.385330 -0.728225 0.302953 0.000000 0.000000 0.000000 
-2.533830 -0.544594 -0.410484 0.000000 0.000000 0.000000 
-3.662370 -0.786482 0.459935 0.000000 0.000000 0.000000 
-2.723110 -0.584281 -0.341965 0.000000 0.000000 0.000000 
-3.764470 -0.807033 0.609782 0.000000 0.000000 0.000000 
-3.764550 -0.806362 0.748353 0.000000 0.000000 0.000000 
-3.406090 -0.728959 -0.182548 0.000000 0.000000 0.000000 
-3.756050 -0.803171 0.886757 0.000000 0.000000 0.000000 
-3.433960 -0.733671 -0.061293 0.000000 0.000000 0.000000 
-3.761570 -0.802977 1.030620 0.000000 0.000000 0.000000 
-0.859848 -0.182453 -0.235525 0.000000 0.000000 0.000000 
-3.216020 -0.681826 0.057384 0.000000 0.000000 0.000000 
-0.932248 -0.197475 -0.220002 0.000000 0.000000 0.000000 
-3.513120 -0.744173 0.188200 0.000000 0.000000 0.000000 
-1.079440 -0.228457 -0.214469 0.000000 0.000000 0.000000 
-3.382010 -0.715167 0.302430 0.000000 0.000000 0.000000 
-2.547310 -0.538196 -0.412361 0.000000 0.000000 0.000000 
-3.554390 -0.750323 0.446042 0.000000 0.000000 0.000000 
-2.962100 -0.624752 -0.371702 0.000000 0.000000 0.000000 
-3.776790 -0.796584 0.611346 0.000000 0.000000 0.000000 
-3.281130 -0.691442 -0.293366 0.000000 0.000000 0.000000 
-3.406660 -0.716654 -0.182443 0.000000 0.000000 0.000000 
-3.414980 -0.717159 -0.060909 0.000000 0.000000 0.000000 
-0.860480 -0.179450 -0.235525 0.000000 0.000000 0.000000 
-3.206630 -0.668148 0.057174 0.000000 0.000000 0.000000 
-0.952010 -0.198192 -0.224501 0.000000 0.000000 0.000000 
-3.621280 -0.753887 0.193852 0.000000 0.000000 0.000000 
-1.095610 -0.227886 -0.217522 0.000000 0.000000 0.000000 
-3.380580 -0.702546 0.302082 0.000000 0.000000 0.000000 
-2.537570 -0.526891 -0.410484 0.000000 0.000000 0.000000 
-3.387880 -0.702830 0.424837 0.000000 0.000000 0.000000 
-3.405500 -0.705865 -0.427030 0.000000 0.000000 0.000000 
-2.959660 -0.612915 -0.264431 0.000000 0.000000 0.000000 
-7.080690 -1.465050 1.405500 0.000000 0.000000 0.000000 
-3.399360 -0.702736 -0.181920 0.000000 0.000000 0.000000 
-3.425290 -0.706851 -0.061049 0.000000 0.000000 0.000000 
-9.403510 -1.938820 2.572660 0.000000 0.000000 0.000000 
-0.898919 -0.184358 -0.245878 0.000000 0.000000 0.000000 
-3.200990 -0.655905 0.057034 0.000000 0.000000 0.000000 
-0.948844 -0.194252 -0.223601 0.000000 0.000000 0.000000 
-3.649200 -0.747082 0.195213 0.000000 0.000000 0.000000 
-1.088660 -0.222678 -0.215996 0.000000 0.000000 0.000000 
-3.423890 -0.699710 0.305742 0.000000 0.000000 0.000000 
-2.525760 -0.515707 -0.408294 0.000000 0.000000 0.000000 
-3.374630 -0.688417 0.422887 0.000000 0.000000 0.000000 
-3.431160 -0.699325 -0.429955 0.000000 0.000000 0.000000 
-3.063190 -0.623771 -0.273495 0.000000 0.000000 0.000000 
-10.052100 -2.045120 1.993950 0.000000 0.000000 0.000000 
-3.335120 -0.677933 -0.178361 0.000000 0.000000 0.000000 
-30.527399 -6.199780 7.191690 0.000000 0.000000 0.000000 
-3.427620 -0.695488 -0.061049 0.000000 0.000000 0.000000 
-30.542200 -6.197240 8.350540 0.000000 0.000000 0.000000 
-0.861681 -0.173589 -0.235525 0.000000 0.000000 0.000000 
-3.203260 -0.644728 0.057034 0.000000 0.000000 0.000000 
-0.915127 -0.184023 -0.215503 0.000000 0.000000 0.000000 
-3.616540 -0.727252 0.193329 0.000000 0.000000 0.000000 
-1.093280 -0.219650 -0.216759 0.000000 0.000000 0.000000 
-3.426310 -0.687754 0.305742 0.000000 0.000000 0.000000 
-2.535290 -0.508441 -0.409545 0.000000 0.000000 0.000000 
-3.373120 -0.675853 0.422399 0.000000 0.000000 0.000000 
-3.425800 -0.685785 -0.428980 0.000000 0.000000 0.000000 
-3.527180 -0.706081 0.569734 0.000000 0.000000 0.000000 
-3.045820 -0.609167 -0.271752 0.000000 0.000000 0.000000 
-10.090000 -2.016170 2.000060 0.000000 0.000000 0.000000 
-3.237580 -0.646345 -0.173023 0.000000 0.000000 0.000000 
-16.412500 -3.273580 3.863760 0.000000 0.000000 0.000000 
-3.433950 -0.684301 -0.061118 0.000000 0.000000 0.000000 
-15.612000 -3.108260 4.265340 0.000000 0.000000 0.000000 
-0.862312 -0.170430 -0.235525 0.000000 0.000000 0.000000 
-3.209530 -0.633758 0.057104 0.000000 0.000000 0.000000 
-0.934914 -0.184440 -0.220002 0.000000 0.000000 0.000000 
-3.670250 -0.723402 0.196050 0.000000 0.000000 0.000000 
-1.086370 -0.214123 -0.215233 0.000000 0.000000 0.000000 
-3.399480 -0.669417 0.303128 0.000000 0.000000 0.000000 
-2.537130 -0.499146 -0.409545 0.000000 0.000000 0.000000 
-3.375580 -0.663486 0.422399 0.000000 0.000000 0.000000 
-3.430230 -0.673607 -0.429224 0.000000 0.000000 0.000000 
-3.432830 -0.674116 0.554091 0.000000 0.000000 0.000000 
-3.094950 -0.607205 -0.275935 0.000000 0.000000 0.000000 
-10.085700 -1.976910 1.997770 0.000000 0.000000 0.000000 
-3.118410 -0.610677 -0.166533 0.000000 0.000000 0.000000 
-3.428580 -0.670176 -0.060979 0.000000 0.000000 0.000000 
-0.862901 -0.167418 -0.235525 0.000000 0.000000 0.000000 
-3.215650 -0.623311 0.057174 0.000000 0.000000 0.000000 
-0.943205 -0.182657 -0.221802 0.000000 0.000000 0.000000 
-3.566870 -0.690099 0.190398 0.000000 0.000000 0.000000 
-1.083260 -0.209584 -0.214469 0.000000 0.000000 0.000000 
-3.382240 -0.653765 0.301385 0.000000 0.000000 0.000000 
-2.542740 -0.491035 -0.410171 0.000000 0.000000 0.000000 
-3.375920 -0.651323 0.422155 0.000000 0.000000 0.000000 
-3.112890 -0.600012 -0.389251 0.000000 0.000000 0.000000 
-3.415880 -0.657795 0.550962 0.000000 0.000000 0.000000 
-3.055970 -0.588486 -0.272275 0.000000 0.000000 0.000000 
-10.142700 -1.951340 2.007690 0.000000 0.000000 0.000000 
-3.110710 -0.597903 -0.166010 0.000000 0.000000 0.000000 
-3.419120 -0.655943 -0.060769 0.000000 0.000000 0.000000 
-0.861583 -0.164044 -0.235008 0.000000 0.000000 0.000000 
-3.206020 -0.609841 0.056965 0.000000 0.000000 0.000000 
-0.951495 -0.180819 -0.223601 0.000000 0.000000 0.000000 
-3.375000 -0.640763 0.180036 0.000000 0.000000 0.000000 
-1.089770 -0.206900 -0.215614 0.000000 0.000000 0.000000 
-3.364920 -0.638242 0.299641 0.000000 0.000000 0.000000 
-2.536680 -0.480686 -0.408920 0.000000 0.000000 0.000000 
-3.374280 -0.638796 0.421668 0.000000 0.000000 0.000000 
-3.122770 -0.590618 -0.390226 0.000000 0.000000 0.000000 
-3.414160 -0.645729 0.550336 0.000000 0.000000 0.000000 
-3.065830 -0.579295 -0.272972 0.000000 0.000000 0.000000 
-10.033700 -1.894070 1.984800 0.000000 0.000000 0.000000 
-3.116710 -0.587781 -0.166219 0.000000 0.000000 0.000000 
-3.421390 -0.644004 -0.060769 0.000000 0.000000 0.000000 
-0.862150 -0.161036 -0.235008 0.000000 0.000000 0.000000 
-3.200260 -0.597179 0.056825 0.000000 0.000000 0.000000 
-0.940626 -0.175354 -0.220902 0.000000 0.000000 0.000000 
-3.379180 -0.629344 0.180140 0.000000 0.000000 0.000000 
-1.098210 -0.204532 -0.217141 0.000000 0.000000 0.000000 
-3.371050 -0.627221 0.299990 0.000000 0.000000 0.000000 
-2.532510 -0.470745 -0.407981 0.000000 0.000000 0.000000 
-3.372580 -0.626289 0.421180 0.000000 0.000000 0.000000 
-3.304380 -0.613027 -0.412650 0.000000 0.000000 0.000000 
-3.420390 -0.633931 0.550962 0.000000 0.000000 0.000000 
-3.103100 -0.575125 -0.276109 0.000000 0.000000 0.000000 
-10.059500 -1.862610 1.988610 0.000000 0.000000 0.000000 
-3.110880 -0.575445 -0.165800 0.000000 0.000000 0.000000 
-15.384000 -2.842930 3.611810 0.000000 0.000000 0.000000 
-3.431480 -0.633510 -0.060909 0.000000 0.000000 0.000000 
-0.862707 -0.158025 -0.235008 0.000000 0.000000 0.000000 
-3.202330 -0.586004 0.056825 0.000000 0.000000 0.000000 
-0.941232 -0.172069 -0.220902 0.000000 0.000000 0.000000 
-3.375460 -0.616468 0.179826 0.000000 0.000000 0.000000 
-1.102780 -0.201403 -0.217904 0.000000 0.000000 0.000000 
-3.375180 -0.615808 0.300164 0.000000 0.000000 0.000000 
-2.539970 -0.462965 -0.408920 0.000000 0.000000 0.000000 
-3.364980 -0.612734 0.419962 0.000000 0.000000 0.000000 
-3.429540 -0.623871 -0.428005 0.000000 0.000000 0.000000 
-3.414700 -0.621171 0.549711 0.000000 0.000000 0.000000 
-3.085480 -0.560727 -0.274366 0.000000 0.000000 0.000000 
-10.112300 -1.835900 1.997770 0.000000 0.000000 0.000000 
-3.097150 -0.561731 -0.164963 0.000000 0.000000 0.000000 
-6.465870 -1.171550 1.517070 0.000000 0.000000 0.000000 
-3.433670 -0.621528 -0.060909 0.000000 0.000000 0.000000 
-15.390200 -2.785770 4.190800 0.000000 0.000000 0.000000 
-0.889874 -0.159793 -0.242255 0.000000 0.000000 0.000000 
-3.208290 -0.575529 0.056895 0.000000 0.000000 0.000000 
-0.945664 -0.169470 -0.221802 0.000000 0.000000 0.000000 
-3.371690 -0.603626 0.179512 0.000000 0.000000 0.000000 
-1.082220 -0.193747 -0.213706 0.000000 0.000000 0.000000 
-3.389070 -0.606127 0.301210 0.000000 0.000000 0.000000 
-2.541570 -0.454096 -0.408920 0.000000 0.000000 0.000000 
-3.374920 -0.602380 0.420937 0.000000 0.000000 0.000000 
-3.419970 -0.609805 -0.426543 0.000000 0.000000 0.000000 
-3.413060 -0.607959 0.549085 0.000000 0.000000 0.000000 
-3.085460 -0.549604 -0.274192 0.000000 0.000000 0.000000 
-10.037500 -1.786140 1.981740 0.000000 0.000000 0.000000 
-3.093190 -0.549868 -0.164649 0.000000 0.000000 0.000000 
-6.446900 -1.144880 1.511670 0.000000 0.000000 0.000000 
-3.424010 -0.607442 -0.060700 0.000000 0.000000 0.000000 
-14.913300 -2.643040 4.058280 0.000000 0.000000 0.000000 
-0.890426 -0.156686 -0.242255 0.000000 0.000000 0.000000 
-3.210280 -0.564326 0.056895 0.000000 0.000000 0.000000 
-0.946249 -0.166168 -0.221802 0.000000 0.000000 0.000000 
-3.369840 -0.591163 0.179303 0.000000 0.000000 0.000000 
-1.073220 -0.188272 -0.211798 0.000000 0.000000 0.000000 
-3.377430 -0.591886 0.299990 0.000000 0.000000 0.000000 
-2.558710 -0.447946 -0.411423 0.000000 0.000000 0.000000 
-3.386780 -0.592305 0.422155 0.000000 0.000000 0.000000 
-3.437720 -0.600597 -0.428493 0.000000 0.000000 0.000000 
-3.415060 -0.596637 0.549085 0.000000 0.000000 0.000000 
-3.077550 -0.537118 -0.273320 0.000000 0.000000 0.000000 
-15.285000 -2.664920 3.015930 0.000000 0.000000 0.000000 
-3.099030 -0.539753 -0.164858 0.000000 0.000000 0.000000 
-3.410340 -0.592747 -0.060420 0.000000 0.000000 0.000000 
-0.864315 -0.148982 -0.235008 0.000000 0.000000 0.000000 
-3.204350 -0.551759 0.056755 0.000000 0.000000 0.000000 
-0.958347 -0.164846 -0.224501 0.000000 0.000000 0.000000 
-3.373860 -0.579735 0.179408 0.000000 0.000000 0.000000 
-1.075800 -0.184857 -0.212180 0.000000 0.000000 0.000000 
-3.369660 -0.578408 0.299119 0.000000 0.000000 0.000000 
-2.552470 -0.437677 -0.410171 0.000000 0.000000 0.000000 
-3.406430 -0.583496 0.424349 0.000000 0.000000 0.000000 
-3.435880 -0.587924 -0.428005 0.000000 0.000000 0.000000 
-3.067620 -0.524358 -0.272275 0.000000 0.000000 0.000000 
-10.042000 -1.714700 1.980220 0.000000 0.000000 0.000000 
-3.106800 -0.529939 -0.165172 0.000000 0.000000 0.000000 
-7.465210 -1.272030 1.748320 0.000000 0.000000 0.000000 
-3.392680 -0.577484 -0.060071 0.000000 0.000000 0.000000 
-0.864829 -0.145964 -0.235008 0.000000 0.000000 0.000000 
-3.194420 -0.538576 0.056546 0.000000 0.000000 0.000000 
-0.928170 -0.156322 -0.217303 0.000000 0.000000 0.000000 
-3.383740 -0.569279 0.179826 0.000000 0.000000 0.000000 
-1.080310 -0.181752 -0.212943 0.000000 0.000000 0.000000 
-3.375590 -0.567302 0.299467 0.000000 0.000000 0.000000 
-2.553980 -0.428764 -0.410171 0.000000 0.000000 0.000000 
-3.404530 -0.570945 0.423862 0.000000 0.000000 0.000000 
-3.437920 -0.575927 -0.428005 0.000000 0.000000 0.000000 
-3.083190 -0.515949 -0.273495 0.000000 0.000000 0.000000 
-9.993690 -1.670580 1.969530 0.000000 0.000000 0.000000 
-3.102720 -0.518104 -0.164858 0.000000 0.000000 0.000000 
-15.093000 -2.517570 3.532630 0.000000 0.000000 0.000000 
-3.274350 -0.545589 -0.057942 0.000000 0.000000 0.000000 
-0.865334 -0.142945 -0.235008 0.000000 0.000000 0.000000 
-3.200230 -0.528073 0.056616 0.000000 0.000000 0.000000 
-0.940247 -0.154982 -0.220002 0.000000 0.000000 0.000000 
-3.375850 -0.555842 0.179303 0.000000 0.000000 0.000000 
-1.080940 -0.177980 -0.212943 0.000000 0.000000 0.000000 
-3.375580 -0.555193 0.299293 0.000000 0.000000 0.000000 
-2.555460 -0.419847 -0.410171 0.000000 0.000000 0.000000 
-3.377120 -0.554236 0.420206 0.000000 0.000000 0.000000 
-3.439910 -0.563923 -0.428005 0.000000 0.000000 0.000000 
-3.413320 -0.559565 0.547834 0.000000 0.000000 0.000000 
-3.088900 -0.505827 -0.273843 0.000000 0.000000 0.000000 
-10.038200 -1.642020 1.977160 0.000000 0.000000 0.000000 
-3.100570 -0.506627 -0.164649 0.000000 0.000000 0.000000 
-3.203210 -0.522250 -0.056651 0.000000 0.000000 0.000000 
-8.118630 -1.323660 2.204100 0.000000 0.000000 0.000000 
-0.865803 -0.140074 -0.235008 0.000000 0.000000 0.000000 
-3.205910 -0.518096 0.056685 0.000000 0.000000 0.000000 
-0.936908 -0.151243 -0.219102 0.000000 0.000000 0.000000 
-3.371760 -0.543691 0.178989 0.000000 0.000000 0.000000 
-1.081530 -0.174394 -0.212943 0.000000 0.000000 0.000000 
-3.377400 -0.543996 0.299293 0.000000 0.000000 0.000000 
-2.574390 -0.414194 -0.412987 0.000000 0.000000 0.000000 
-3.369140 -0.541459 0.418987 0.000000 0.000000 0.000000 
-3.430000 -0.550624 -0.426543 0.000000 0.000000 0.000000 
-3.405500 -0.546083 0.546269 0.000000 0.000000 0.000000 
-3.102370 -0.497474 -0.274889 0.000000 0.000000 0.000000 
-10.004800 -1.602510 1.969530 0.000000 0.000000 0.000000 
-3.110120 -0.497604 -0.165068 0.000000 0.000000 0.000000 
-8.132180 -1.299650 1.901290 0.000000 0.000000 0.000000 
-3.195050 -0.510049 -0.056476 0.000000 0.000000 0.000000 
-8.113430 -1.295200 2.201510 0.000000 0.000000 0.000000 
-0.893000 -0.141278 -0.242255 0.000000 0.000000 0.000000 
-3.207700 -0.506902 0.056685 0.000000 0.000000 0.000000 
-0.945129 -0.149187 -0.220902 0.000000 0.000000 0.000000 
-3.373640 -0.531918 0.178989 0.000000 0.000000 0.000000 
-1.074370 -0.169395 -0.211416 0.000000 0.000000 0.000000 
-3.371410 -0.530963 0.298596 0.000000 0.000000 0.000000 
-2.603140 -0.409503 -0.417367 0.000000 0.000000 0.000000 
-3.374930 -0.530311 0.419474 0.000000 0.000000 0.000000 
-3.431900 -0.538648 -0.426543 0.000000 0.000000 0.000000 
-3.401530 -0.533274 0.545331 0.000000 0.000000 0.000000 
-3.096210 -0.485407 -0.274192 0.000000 0.000000 0.000000 
-7.946610 -1.244410 1.563490 0.000000 0.000000 0.000000 
-3.121710 -0.488288 -0.165591 0.000000 0.000000 0.000000 
-8.155920 -1.274270 1.905790 0.000000 0.000000 0.000000 
-3.184960 -0.497043 -0.056267 0.000000 0.000000 0.000000 
-8.142940 -1.269330 2.208240 0.000000 0.000000 0.000000 
-0.866760 -0.134027 -0.235008 0.000000 0.000000 0.000000 
-3.205500 -0.495092 0.056616 0.000000 0.000000 0.000000 
-0.961052 -0.148263 -0.224501 0.000000 0.000000 0.000000 
-3.383370 -0.521355 0.179408 0.000000 0.000000 0.000000 
-1.084660 -0.167139 -0.213324 0.000000 0.000000 0.000000 
-3.357490 -0.516767 0.297201 0.000000 0.000000 0.000000 
-2.604550 -0.400414 -0.417367 0.000000 0.000000 0.000000 
-3.380690 -0.519130 0.419962 0.000000 0.000000 0.000000 
-3.441610 -0.527869 -0.427518 0.000000 0.000000 0.000000 
-3.420950 -0.524090 0.548146 0.000000 0.000000 0.000000 
-3.097890 -0.474596 -0.274192 0.000000 0.000000 0.000000 
-7.954790 -1.217250 1.564250 0.000000 0.000000 0.000000 
-3.129310 -0.478294 -0.165905 0.000000 0.000000 0.000000 
-8.969410 -1.369310 2.094740 0.000000 0.000000 0.000000 
-3.188650 -0.486224 -0.056302 0.000000 0.000000 0.000000 
-0.867222 -0.131000 -0.235008 0.000000 0.000000 0.000000 
-3.191390 -0.481513 0.056336 0.000000 0.000000 0.000000 
-0.957710 -0.144327 -0.223601 0.000000 0.000000 0.000000 
-3.387140 -0.509839 0.179512 0.000000 0.000000 0.000000 
-1.087180 -0.163644 -0.213706 0.000000 0.000000 0.000000 
-3.363210 -0.505636 0.297550 0.000000 0.000000 0.000000 
-2.652820 -0.398360 -0.424876 0.000000 0.000000 0.000000 
-3.370700 -0.505559 0.418499 0.000000 0.000000 0.000000 
-3.435570 -0.514676 -0.426543 0.000000 0.000000 0.000000 
-3.438390 -0.514484 0.550649 0.000000 0.000000 0.000000 
-3.099520 -0.463780 -0.274192 0.000000 0.000000 0.000000 
-8.178400 -1.222270 1.607380 0.000000 0.000000 0.000000 
-3.130970 -0.467367 -0.165905 0.000000 0.000000 0.000000 
-6.622670 -0.987401 1.545860 0.000000 0.000000 0.000000 
-3.206150 -0.477446 -0.056581 0.000000 0.000000 0.000000 
-6.959060 -1.036310 1.885240 0.000000 0.000000 0.000000 
-0.867652 -0.128124 -0.235008 0.000000 0.000000 0.000000 
-3.196920 -0.471510 0.056406 0.000000 0.000000 0.000000 
-0.938904 -0.138310 -0.219102 0.000000 0.000000 0.000000 
-3.416390 -0.503270 0.180978 0.000000 0.000000 0.000000 
-1.083830 -0.159466 -0.212943 0.000000 0.000000 0.000000 
-3.376700 -0.496219 0.298596 0.000000 0.000000 0.000000 
-2.689300 -0.394724 -0.430508 0.000000 0.000000 0.000000 
-3.360570 -0.492651 0.417037 0.000000 0.000000 0.000000 
-3.433330 -0.502705 -0.426055 0.000000 0.000000 0.000000 
-3.451710 -0.505396 0.552527 0.000000 0.000000 0.000000 
-3.112870 -0.455229 -0.275238 0.000000 0.000000 0.000000 
-10.024000 -1.464130 1.969150 0.000000 0.000000 0.000000 
-3.128550 -0.456405 -0.165696 0.000000 0.000000 0.000000 
-8.257310 -1.203140 1.926480 0.000000 0.000000 0.000000 
-3.207720 -0.466812 -0.056581 0.000000 0.000000 0.000000 
-0.868094 -0.125094 -0.235008 0.000000 0.000000 0.000000 
-3.194590 -0.459779 0.056336 0.000000 0.000000 0.000000 
-0.950954 -0.136696 -0.221802 0.000000 0.000000 0.000000 
-3.590210 -0.515439 0.190084 0.000000 0.000000 0.000000 
-1.080490 -0.155124 -0.212180 0.000000 0.000000 0.000000 
-3.390240 -0.486126 0.299641 0.000000 0.000000 0.000000 
-2.712180 -0.388415 -0.433949 0.000000 0.000000 0.000000 
-3.372100 -0.482323 0.418256 0.000000 0.000000 0.000000 
-3.423280 -0.489033 -0.424593 0.000000 0.000000 0.000000 
-3.453540 -0.492742 0.552527 0.000000 0.000000 0.000000 
-3.122330 -0.445486 -0.275935 0.000000 0.000000 0.000000 
-10.029100 -1.429140 1.969150 0.000000 0.000000 0.000000 
-3.138030 -0.446608 -0.166114 0.000000 0.000000 0.000000 
-15.207100 -2.161580 3.546130 0.000000 0.000000 0.000000 
-3.205370 -0.455050 -0.056511 0.000000 0.000000 0.000000 
-7.268340 -1.030560 1.967020 0.000000 0.000000 0.000000 
-0.868546 -0.121912 -0.235008 0.000000 0.000000 0.000000 
-3.200220 -0.448622 0.056406 0.000000 0.000000 0.000000 
-0.959169 -0.134290 -0.223601 0.000000 0.000000 0.000000 
-3.603860 -0.504565 0.190712 0.000000 0.000000 0.000000 
-1.073270 -0.150075 -0.210653 0.000000 0.000000 0.000000 
-3.603140 -0.503182 0.318293 0.000000 0.000000 0.000000 
-2.711620 -0.378199 -0.433636 0.000000 0.000000 0.000000 
-3.436840 -0.478124 -0.426055 0.000000 0.000000 0.000000 
-3.492500 -0.485246 0.558471 0.000000 0.000000 0.000000 
-3.123940 -0.434039 -0.275935 0.000000 0.000000 0.000000 
-10.034200 -1.392370 1.969150 0.000000 0.000000 0.000000 
-3.151510 -0.436748 -0.166742 0.000000 0.000000 0.000000 
-17.855600 -2.471320 4.161590 0.000000 0.000000 0.000000 
-3.203050 -0.442751 -0.056441 0.000000 0.000000 0.000000 
-0.819202 -0.112071 -0.221549 0.000000 0.000000 0.000000 
-3.197800 -0.436907 0.056336 0.000000 0.000000 0.000000 
-0.944185 -0.128834 -0.220002 0.000000 0.000000 0.000000 
-3.730270 -0.508993 0.197307 0.000000 0.000000 0.000000 
-1.067960 -0.145532 -0.209508 0.000000 0.000000 0.000000 
-3.622640 -0.493020 0.319862 0.000000 0.000000 0.000000 
-2.726630 -0.370593 -0.435826 0.000000 0.000000 0.000000 
-3.513160 -0.476871 0.435317 0.000000 0.000000 0.000000 
-3.438490 -0.466125 -0.426055 0.000000 0.000000 0.000000 
-4.003130 -0.541955 0.639817 0.000000 0.000000 0.000000 
-3.117540 -0.422062 -0.275238 0.000000 0.000000 0.000000 
-12.595500 -1.702980 2.470590 0.000000 0.000000 0.000000 
-3.156980 -0.426279 -0.166952 0.000000 0.000000 0.000000 
-10.050300 -1.355280 2.341290 0.000000 0.000000 0.000000 
-3.208540 -0.432101 -0.056511 0.000000 0.000000 0.000000 
-8.470050 -1.140680 2.290030 0.000000 0.000000 0.000000 
-0.846378 -0.112931 -0.228796 0.000000 0.000000 0.000000 
-3.191300 -0.425244 0.056197 0.000000 0.000000 0.000000 
-0.960061 -0.127758 -0.223601 0.000000 0.000000 0.000000 
-3.747860 -0.498074 0.198144 0.000000 0.000000 0.000000 
-1.072330 -0.142507 -0.210272 0.000000 0.000000 0.000000 
-3.624250 -0.481004 0.319862 0.000000 0.000000 0.000000 
-2.720010 -0.360511 -0.434575 0.000000 0.000000 0.000000 
-4.014570 -0.531380 0.497227 0.000000 0.000000 0.000000 
-3.434110 -0.453939 -0.425324 0.000000 0.000000 0.000000 
-8.164330 -1.079200 1.304350 0.000000 0.000000 0.000000 
-3.114970 -0.411200 -0.274889 0.000000 0.000000 0.000000 
-6.726810 -0.886795 1.318870 0.000000 0.000000 0.000000 
-3.154410 -0.415287 -0.166742 0.000000 0.000000 0.000000 
-3.213920 -0.421980 -0.056581 0.000000 0.000000 0.000000 
-0.869756 -0.112962 -0.235008 0.000000 0.000000 0.000000 
-3.190780 -0.413844 0.056162 0.000000 0.000000 0.000000 
-0.941175 -0.121903 -0.219102 0.000000 0.000000 0.000000 
-3.743550 -0.484873 0.197830 0.000000 0.000000 0.000000 
-1.078660 -0.139519 -0.211416 0.000000 0.000000 0.000000 
-2.729090 -0.352025 -0.435826 0.000000 0.000000 0.000000 
-4.028220 -0.518885 0.498689 0.000000 0.000000 0.000000 
-2.565440 -0.330005 -0.317592 0.000000 0.000000 0.000000 
-8.070260 -1.036690 1.288710 0.000000 0.000000 0.000000 
-3.128250 -0.401848 -0.275935 0.000000 0.000000 0.000000 
-10.048100 -1.288970 1.969150 0.000000 0.000000 0.000000 
-3.140000 -0.402243 -0.165905 0.000000 0.000000 0.000000 
-7.097930 -0.908007 1.652040 0.000000 0.000000 0.000000 
-3.223310 -0.411772 -0.056720 0.000000 0.000000 0.000000 
-9.474290 -1.208640 2.559200 0.000000 0.000000 0.000000 
-0.831812 -0.105082 -0.224655 0.000000 0.000000 0.000000 
-3.198160 -0.403455 0.056267 0.000000 0.000000 0.000000 
-0.949328 -0.119591 -0.220902 0.000000 0.000000 0.000000 
-3.737290 -0.470805 0.197411 0.000000 0.000000 0.000000 
-1.083030 -0.136243 -0.212180 0.000000 0.000000 0.000000 
-2.726380 -0.342005 -0.435201 0.000000 0.000000 0.000000 
-2.556720 -0.319816 -0.316373 0.000000 0.000000 0.000000 
-8.073660 -1.009920 1.288710 0.000000 0.000000 0.000000 
-10.025200 -1.250480 1.963810 0.000000 0.000000 0.000000 
-3.153270 -0.392761 -0.166533 0.000000 0.000000 0.000000 
-7.089450 -0.881782 1.649340 0.000000 0.000000 0.000000 
-3.220760 -0.400025 -0.056651 0.000000 0.000000 0.000000 
-6.859610 -0.850762 1.852110 0.000000 0.000000 0.000000 
-0.839844 -0.103120 -0.226725 0.000000 0.000000 0.000000 
-3.199550 -0.392289 0.056267 0.000000 0.000000 0.000000 
-0.961346 -0.117698 -0.223601 0.000000 0.000000 0.000000 
-3.740900 -0.457999 0.197516 0.000000 0.000000 0.000000 
-1.077660 -0.131747 -0.211035 0.000000 0.000000 0.000000 
-3.951460 -0.482378 0.348274 0.000000 0.000000 0.000000 
-2.731480 -0.332964 -0.435826 0.000000 0.000000 0.000000 
-15.843200 -1.928460 1.959660 0.000000 0.000000 0.000000 
-2.551910 -0.310171 -0.315642 0.000000 0.000000 0.000000 
-8.077130 -0.981732 1.288710 0.000000 0.000000 0.000000 
-2.557390 -0.310384 -0.225385 0.000000 0.000000 0.000000 
-15.003400 -1.818260 2.937700 0.000000 0.000000 0.000000 
-3.162560 -0.382711 -0.166952 0.000000 0.000000 0.000000 
-10.010000 -1.209570 2.327790 0.000000 0.000000 0.000000 
-3.216180 -0.388061 -0.056546 0.000000 0.000000 0.000000 
-0.870891 -0.103847 -0.235008 0.000000 0.000000 0.000000 
-3.196930 -0.380645 0.056197 0.000000 0.000000 0.000000 
-0.942400 -0.112041 -0.219102 0.000000 0.000000 0.000000 
-3.738510 -0.444466 0.197307 0.000000 0.000000 0.000000 
-1.074210 -0.127521 -0.210272 0.000000 0.000000 0.000000 
-3.957080 -0.469051 0.348623 0.000000 0.000000 0.000000 
-2.714970 -0.321338 -0.433011 0.000000 0.000000 0.000000 
-15.999700 -1.890850 1.978180 0.000000 0.000000 0.000000 
-2.545100 -0.300331 -0.314667 0.000000 0.000000 0.000000 
-8.080510 -0.953531 1.288710 0.000000 0.000000 0.000000 
-2.566380 -0.302388 -0.226082 0.000000 0.000000 0.000000 
-10.061000 -1.183680 1.969150 0.000000 0.000000 0.000000 
-3.167840 -0.372136 -0.167161 0.000000 0.000000 0.000000 
-27.979200 -3.281850 6.503780 0.000000 0.000000 0.000000 
-3.215530 -0.376600 -0.056511 0.000000 0.000000 0.000000 
-0.832867 -0.096366 -0.224655 0.000000 0.000000 0.000000 
-3.186320 -0.368106 0.055987 0.000000 0.000000 0.000000 
-0.977631 -0.112770 -0.227201 0.000000 0.000000 0.000000 
-3.744000 -0.431871 0.197516 0.000000 0.000000 0.000000 
-1.074650 -0.123771 -0.210272 0.000000 0.000000 0.000000 
-3.966610 -0.456146 0.349320 0.000000 0.000000 0.000000 
-2.663090 -0.305775 -0.424563 0.000000 0.000000 0.000000 
-2.565850 -0.293703 -0.317104 0.000000 0.000000 0.000000 
-8.009210 -0.916783 1.276820 0.000000 0.000000 0.000000 
-2.535740 -0.289808 -0.223293 0.000000 0.000000 0.000000 
-9.987050 -1.139650 1.953880 0.000000 0.000000 0.000000 
-3.153240 -0.359267 -0.166324 0.000000 0.000000 0.000000 
-27.971100 -3.181960 6.499290 0.000000 0.000000 0.000000 
-3.220800 -0.365825 -0.056581 0.000000 0.000000 0.000000 
-9.202310 -1.043590 2.481560 0.000000 0.000000 0.000000 
-0.871595 -0.097765 -0.235008 0.000000 0.000000 0.000000 
-3.191560 -0.357427 0.056057 0.000000 0.000000 0.000000 
-0.931539 -0.104160 -0.216403 0.000000 0.000000 0.000000 
-3.741590 -0.417703 0.197307 0.000000 0.000000 0.000000 
-1.082880 -0.120890 -0.211798 0.000000 0.000000 0.000000 
-4.039460 -0.450243 0.355595 0.000000 0.000000 0.000000 
-2.585610 -0.287738 -0.412048 0.000000 0.000000 0.000000 
-2.562910 -0.284307 -0.316617 0.000000 0.000000 0.000000 
-6.744050 -0.748125 1.074700 0.000000 0.000000 0.000000 
-2.544660 -0.281832 -0.223990 0.000000 0.000000 0.000000 
-9.994870 -1.105210 1.954650 0.000000 0.000000 0.000000 
-3.154480 -0.348258 -0.166324 0.000000 0.000000 0.000000 
-3.226030 -0.355017 -0.056651 0.000000 0.000000 0.000000 
-27.947399 -3.075550 7.533700 0.000000 0.000000 0.000000 
-0.871931 -0.094722 -0.235008 0.000000 0.000000 0.000000 
-3.196760 -0.346715 0.056127 0.000000 0.000000 0.000000 
-0.931897 -0.100907 -0.216403 0.000000 0.000000 0.000000 
-3.731110 -0.403352 0.196679 0.000000 0.000000 0.000000 
-1.073540 -0.116055 -0.209890 0.000000 0.000000 0.000000 
-2.557140 -0.275536 -0.407355 0.000000 0.000000 0.000000 
-2.552050 -0.274087 -0.315154 0.000000 0.000000 0.000000 
-6.715320 -0.720032 1.069700 0.000000 0.000000 0.000000 
-2.563460 -0.274860 -0.225559 0.000000 0.000000 0.000000 
-9.959620 -1.066130 1.947020 0.000000 0.000000 0.000000 
-3.153690 -0.337032 -0.166219 0.000000 0.000000 0.000000 
-14.521400 -1.549330 3.371570 0.000000 0.000000 0.000000 
-3.219300 -0.342907 -0.056511 0.000000 0.000000 0.000000 
-8.440960 -0.897609 2.274500 0.000000 0.000000 0.000000 
-0.841500 -0.088594 -0.226725 0.000000 0.000000 0.000000 
-3.209830 -0.337366 0.056336 0.000000 0.000000 0.000000 
-0.947731 -0.099443 -0.220002 0.000000 0.000000 0.000000 
-3.740370 -0.391809 0.197097 0.000000 0.000000 0.000000 
-1.070010 -0.112085 -0.209127 0.000000 0.000000 0.000000 
-13.427200 -1.404150 1.181130 0.000000 0.000000 0.000000 
-2.560000 -0.267260 -0.407668 0.000000 0.000000 0.000000 
-2.560840 -0.266444 -0.316129 0.000000 0.000000 0.000000 
-6.670400 -0.694025 1.062190 0.000000 0.000000 0.000000 
-2.548500 -0.264711 -0.224165 0.000000 0.000000 0.000000 
-10.013900 -1.038370 1.956940 0.000000 0.000000 0.000000 
-3.156780 -0.326778 -0.166324 0.000000 0.000000 0.000000 
-3.220420 -0.332229 -0.056511 0.000000 0.000000 0.000000 
-14.466200 -1.492380 3.896780 0.000000 0.000000 0.000000 
-0.872555 -0.088785 -0.235008 0.000000 0.000000 0.000000 
-3.199050 -0.324948 0.056127 0.000000 0.000000 0.000000 
-0.944195 -0.095741 -0.219102 0.000000 0.000000 0.000000 
-3.741720 -0.378750 0.197097 0.000000 0.000000 0.000000 
-1.074300 -0.108745 -0.209890 0.000000 0.000000 0.000000 
-13.432000 -1.357270 1.181130 0.000000 0.000000 0.000000 
-2.562890 -0.258521 -0.407981 0.000000 0.000000 0.000000 
-2.561760 -0.257504 -0.316129 0.000000 0.000000 0.000000 
-8.799570 -0.882968 1.400710 0.000000 0.000000 0.000000 
-2.551390 -0.256012 -0.224339 0.000000 0.000000 0.000000 
-6.606670 -0.661762 1.290630 0.000000 0.000000 0.000000 
-3.157900 -0.315757 -0.166324 0.000000 0.000000 0.000000 
-7.322060 -0.730839 1.698830 0.000000 0.000000 0.000000 
-3.217580 -0.320590 -0.056441 0.000000 0.000000 0.000000 
-8.493020 -0.844722 2.286930 0.000000 0.000000 0.000000 
-0.842098 -0.082717 -0.226725 0.000000 0.000000 0.000000 
-3.188220 -0.312608 0.055918 0.000000 0.000000 0.000000 
-0.960039 -0.093963 -0.222702 0.000000 0.000000 0.000000 
-3.745010 -0.365881 0.197202 0.000000 0.000000 0.000000 
-1.076630 -0.105185 -0.210272 0.000000 0.000000 0.000000 
-13.401000 -1.306900 1.178000 0.000000 0.000000 0.000000 
-2.551980 -0.248425 -0.406104 0.000000 0.000000 0.000000 
-6.840170 -0.664659 0.843823 0.000000 0.000000 0.000000 
-2.574490 -0.249710 -0.317592 0.000000 0.000000 0.000000 
-8.814250 -0.854927 1.402590 0.000000 0.000000 0.000000 
-2.568140 -0.248641 -0.225733 0.000000 0.000000 0.000000 
-6.569850 -0.634920 1.283000 0.000000 0.000000 0.000000 
-3.151030 -0.303965 -0.165905 0.000000 0.000000 0.000000 
-7.320690 -0.704902 1.697930 0.000000 0.000000 0.000000 
-3.218680 -0.309356 -0.056441 0.000000 0.000000 0.000000 
-27.948700 -2.686230 7.523350 0.000000 0.000000 0.000000 
-0.873154 -0.082691 -0.235008 0.000000 0.000000 0.000000 
-3.193280 -0.301853 0.055987 0.000000 0.000000 0.000000 
-0.944840 -0.089147 -0.219102 0.000000 0.000000 0.000000 
-3.730350 -0.351308 0.196365 0.000000 0.000000 0.000000 
-1.080900 -0.101794 -0.211035 0.000000 0.000000 0.000000 
-2.556760 -0.239884 -0.406730 0.000000 0.000000 0.000000 
-2.563490 -0.239613 -0.316129 0.000000 0.000000 0.000000 
-9.950220 -0.928309 1.582800 0.000000 0.000000 0.000000 
-2.572960 -0.240045 -0.226082 0.000000 0.000000 0.000000 
-10.088700 -0.939453 1.969530 0.000000 0.000000 0.000000 
-3.142130 -0.292039 -0.165382 0.000000 0.000000 0.000000 
-10.000900 -0.927752 2.318800 0.000000 0.000000 0.000000 
-3.223720 -0.298488 -0.056511 0.000000 0.000000 0.000000 
-7.244480 -0.669500 1.949430 0.000000 0.000000 0.000000 
-0.873423 -0.079795 -0.235008 0.000000 0.000000 0.000000 
-3.194260 -0.291263 0.055987 0.000000 0.000000 0.000000 
-0.941249 -0.085660 -0.218203 0.000000 0.000000 0.000000 
-3.739450 -0.339659 0.196783 0.000000 0.000000 0.000000 
-1.073410 -0.097499 -0.209508 0.000000 0.000000 0.000000 
-2.553610 -0.231048 -0.406104 0.000000 0.000000 0.000000 
-2.560320 -0.230754 -0.315642 0.000000 0.000000 0.000000 
-9.953090 -0.897045 1.582800 0.000000 0.000000 0.000000 
-2.573740 -0.231511 -0.226082 0.000000 0.000000 0.000000 
-7.514560 -0.674623 1.466560 0.000000 0.000000 0.000000 
-3.145070 -0.281796 -0.165486 0.000000 0.000000 0.000000 
-10.003900 -0.894583 2.318800 0.000000 0.000000 0.000000 
-3.216720 -0.287085 -0.056371 0.000000 0.000000 0.000000 
-7.308130 -0.652233 1.965990 0.000000 0.000000 0.000000 
-0.896790 -0.078774 -0.241219 0.000000 0.000000 0.000000 
-3.203230 -0.280809 0.056127 0.000000 0.000000 0.000000 
-0.949308 -0.083054 -0.220002 0.000000 0.000000 0.000000 
-3.726690 -0.325388 0.196050 0.000000 0.000000 0.000000 
-1.065920 -0.093068 -0.207982 0.000000 0.000000 0.000000 
-2.566210 -0.223160 -0.407981 0.000000 0.000000 0.000000 
-2.565060 -0.222158 -0.316129 0.000000 0.000000 0.000000 
-13.577500 -1.173550 2.158480 0.000000 0.000000 0.000000 
-2.566590 -0.221839 -0.225385 0.000000 0.000000 0.000000 
-6.773600 -0.584275 1.321540 0.000000 0.000000 0.000000 
-3.148020 -0.270988 -0.165591 0.000000 0.000000 0.000000 
-6.515970 -0.559762 1.509870 0.000000 0.000000 0.000000 
-3.213720 -0.275513 -0.056302 0.000000 0.000000 0.000000 
-7.283520 -0.623137 1.958740 0.000000 0.000000 0.000000 
-0.854721 -0.071923 -0.229831 0.000000 0.000000 0.000000 
-3.200250 -0.268732 0.056057 0.000000 0.000000 0.000000 
-0.945722 -0.079248 -0.219102 0.000000 0.000000 0.000000 
-3.743780 -0.313058 0.196888 0.000000 0.000000 0.000000 
-1.077990 -0.090143 -0.210272 0.000000 0.000000 0.000000 
-2.567010 -0.213753 -0.407981 0.000000 0.000000 0.000000 
-2.573770 -0.213412 -0.317104 0.000000 0.000000 0.000000 
-10.026200 -0.831350 1.593440 0.000000 0.000000 0.000000 
-2.571360 -0.212760 -0.225733 0.000000 0.000000 0.000000 
-7.926170 -0.654436 1.545930 0.000000 0.000000 0.000000 
-3.150980 -0.259612 -0.165696 0.000000 0.000000 0.000000 
-10.010000 -0.822975 2.318800 0.000000 0.000000 0.000000 
-3.212720 -0.263569 -0.056267 0.000000 0.000000 0.000000 
-7.401170 -0.607187 1.989800 0.000000 0.000000 0.000000 
-0.851116 -0.068629 -0.228796 0.000000 0.000000 0.000000 
-3.189210 -0.256597 0.055848 0.000000 0.000000 0.000000 
-0.949878 -0.076259 -0.220002 0.000000 0.000000 0.000000 
-3.748830 -0.300307 0.197097 0.000000 0.000000 0.000000 
-1.082210 -0.086693 -0.211035 0.000000 0.000000 0.000000 
-2.559860 -0.204163 -0.406730 0.000000 0.000000 0.000000 
-17.097099 -1.360590 2.105900 0.000000 0.000000 0.000000 
-2.582420 -0.205055 -0.318079 0.000000 0.000000 0.000000 
-10.001500 -0.794158 1.589060 0.000000 0.000000 0.000000 
-2.572080 -0.203783 -0.225733 0.000000 0.000000 0.000000 
-8.734750 -0.690508 1.703160 0.000000 0.000000 0.000000 
-3.137930 -0.247512 -0.164963 0.000000 0.000000 0.000000 
-10.012800 -0.788028 2.318800 0.000000 0.000000 0.000000 
-3.213620 -0.252353 -0.056267 0.000000 0.000000 0.000000 
-0.876378 -0.067741 -0.235525 0.000000 0.000000 0.000000 
-3.190040 -0.246020 0.055848 0.000000 0.000000 0.000000 
-0.954011 -0.073407 -0.220902 0.000000 0.000000 0.000000 
-3.749800 -0.287873 0.197097 0.000000 0.000000 0.000000 
-1.086410 -0.083404 -0.211798 0.000000 0.000000 0.000000 
-2.556580 -0.195372 -0.406104 0.000000 0.000000 0.000000 
-18.978001 -1.446950 2.336970 0.000000 0.000000 0.000000 
-2.571210 -0.195587 -0.316617 0.000000 0.000000 0.000000 
-7.802030 -0.592116 1.239270 0.000000 0.000000 0.000000 
-2.584670 -0.196157 -0.226779 0.000000 0.000000 0.000000 
-9.985980 -0.756108 1.946630 0.000000 0.000000 0.000000 
-3.126790 -0.236202 -0.164335 0.000000 0.000000 0.000000 
-10.015400 -0.754820 2.318800 0.000000 0.000000 0.000000 
-3.218420 -0.241994 -0.056336 0.000000 0.000000 0.000000 
-15.777300 -1.186300 4.239460 0.000000 0.000000 0.000000 
-0.903582 -0.066672 -0.242772 0.000000 0.000000 0.000000 
-3.190880 -0.234883 0.055848 0.000000 0.000000 0.000000 
-0.946488 -0.069506 -0.219102 0.000000 0.000000 0.000000 
-3.730870 -0.273323 0.196050 0.000000 0.000000 0.000000 
-1.074950 -0.078750 -0.209508 0.000000 0.000000 0.000000 
-2.567100 -0.187165 -0.407668 0.000000 0.000000 0.000000 
-2.567910 -0.186323 -0.316129 0.000000 0.000000 0.000000 
-7.776470 -0.562881 1.234890 0.000000 0.000000 0.000000 
-2.585330 -0.187133 -0.226779 0.000000 0.000000 0.000000 
-10.008100 -0.722660 1.950450 0.000000 0.000000 0.000000 
-3.127590 -0.225286 -0.164335 0.000000 0.000000 0.000000 
-15.876400 -1.140820 3.674800 0.000000 0.000000 0.000000 
-3.209280 -0.230044 -0.056162 0.000000 0.000000 0.000000 
-27.813299 -1.988810 7.471590 0.000000 0.000000 0.000000 
-0.845996 -0.059455 -0.227243 0.000000 0.000000 0.000000 
-3.199660 -0.224303 0.055987 0.000000 0.000000 0.000000 
-0.950613 -0.066473 -0.220002 0.000000 0.000000 0.000000 
-3.737780 -0.260715 0.196365 0.000000 0.000000 0.000000 
-1.077170 -0.075134 -0.209890 0.000000 0.000000 0.000000 
-2.571680 -0.178476 -0.408294 0.000000 0.000000 0.000000 
-2.572510 -0.177632 -0.316617 0.000000 0.000000 0.000000 
-7.833560 -0.539533 1.243650 0.000000 0.000000 0.000000 
-2.585970 -0.178108 -0.226779 0.000000 0.000000 0.000000 
-27.877300 -1.915150 5.431570 0.000000 0.000000 0.000000 
-3.134340 -0.214777 -0.164649 0.000000 0.000000 0.000000 
-10.020400 -0.684881 2.318800 0.000000 0.000000 0.000000 
-3.196090 -0.217888 -0.055918 0.000000 0.000000 0.000000 
-27.819799 -1.896560 7.471590 0.000000 0.000000 0.000000 
-0.877040 -0.058560 -0.235525 0.000000 0.000000 0.000000 
-3.192440 -0.212601 0.055848 0.000000 0.000000 0.000000 
-0.966395 -0.064188 -0.223601 0.000000 0.000000 0.000000 
-3.736670 -0.247534 0.196260 0.000000 0.000000 0.000000 
-1.071550 -0.070984 -0.208745 0.000000 0.000000 0.000000 
-2.564400 -0.168979 -0.407042 0.000000 0.000000 0.000000 
-2.585000 -0.169430 -0.318079 0.000000 0.000000 0.000000 
-9.987920 -0.652892 1.585310 0.000000 0.000000 0.000000 
-2.586580 -0.169080 -0.226779 0.000000 0.000000 0.000000 
-9.914980 -0.646387 1.931370 0.000000 0.000000 0.000000 
-3.135070 -0.203835 -0.164649 0.000000 0.000000 0.000000 
-10.022800 -0.649899 2.318800 0.000000 0.000000 0.000000 
-3.220780 -0.208279 -0.056336 0.000000 0.000000 0.000000 
-27.780001 -1.796450 7.459170 0.000000 0.000000 0.000000 
-0.877239 -0.055499 -0.235525 0.000000 0.000000 0.000000 
-3.189170 -0.201205 0.055778 0.000000 0.000000 0.000000 
-0.954943 -0.060080 -0.220902 0.000000 0.000000 0.000000 
-3.737470 -0.235142 0.196260 0.000000 0.000000 0.000000 
-1.075710 -0.067489 -0.209508 0.000000 0.000000 0.000000 
-2.564980 -0.160026 -0.407042 0.000000 0.000000 0.000000 
-2.581610 -0.160160 -0.317592 0.000000 0.000000 0.000000 
-27.856501 -1.728180 4.420530 0.000000 0.000000 0.000000 
-2.575220 -0.159312 -0.225733 0.000000 0.000000 0.000000 
-9.987720 -0.616125 1.945110 0.000000 0.000000 0.000000 
-3.121810 -0.192032 -0.163916 0.000000 0.000000 0.000000 
-27.806900 -1.705620 6.431800 0.000000 0.000000 0.000000 
-3.321290 -0.203139 -0.058082 0.000000 0.000000 0.000000 
-27.774500 -1.698760 7.456060 0.000000 0.000000 0.000000 
-0.877427 -0.052436 -0.235525 0.000000 0.000000 0.000000 
-3.189860 -0.190071 0.055778 0.000000 0.000000 0.000000 
-0.939585 -0.055822 -0.217303 0.000000 0.000000 0.000000 
-3.734320 -0.221205 0.196050 0.000000 0.000000 0.000000 
-1.083780 -0.064199 -0.211035 0.000000 0.000000 0.000000 
-8.504640 -0.502289 0.745356 0.000000 0.000000 0.000000 
-2.565520 -0.151072 -0.407042 0.000000 0.000000 0.000000 
-7.891050 -0.463287 0.970567 0.000000 0.000000 0.000000 
-2.582160 -0.151147 -0.317592 0.000000 0.000000 0.000000 
-9.972510 -0.581997 1.582180 0.000000 0.000000 0.000000 
-2.583720 -0.150786 -0.226431 0.000000 0.000000 0.000000 
-9.974130 -0.580345 1.942050 0.000000 0.000000 0.000000 
-3.118470 -0.180902 -0.163707 0.000000 0.000000 0.000000 
-27.746599 -1.604720 6.416500 0.000000 0.000000 0.000000 
-3.413810 -0.196839 -0.059687 0.000000 0.000000 0.000000 
-8.814010 -0.506669 2.365610 0.000000 0.000000 0.000000 
-0.916181 -0.051543 -0.245878 0.000000 0.000000 0.000000 
-3.190500 -0.178935 0.055778 0.000000 0.000000 0.000000 
-0.947557 -0.052977 -0.219102 0.000000 0.000000 0.000000 
-3.731050 -0.208598 0.195841 0.000000 0.000000 0.000000 
-1.066360 -0.059432 -0.207600 0.000000 0.000000 0.000000 
-2.568010 -0.142225 -0.407355 0.000000 0.000000 0.000000 
-2.570770 -0.141478 -0.316129 0.000000 0.000000 0.000000 
-9.946870 -0.545668 1.577800 0.000000 0.000000 0.000000 
-2.596160 -0.142421 -0.227476 0.000000 0.000000 0.000000 
-15.014100 -0.821021 2.922810 0.000000 0.000000 0.000000 
-3.121080 -0.170124 -0.163812 0.000000 0.000000 0.000000 
-27.744200 -1.507430 6.414700 0.000000 0.000000 0.000000 
-3.426460 -0.185570 -0.059897 0.000000 0.000000 0.000000 
-27.843500 -1.507950 7.471590 0.000000 0.000000 0.000000 
-0.877772 -0.046309 -0.235525 0.000000 0.000000 0.000000 
-3.197100 -0.168112 0.055883 0.000000 0.000000 0.000000 
-0.955520 -0.050077 -0.220902 0.000000 0.000000 0.000000 
-3.731750 -0.195573 0.195841 0.000000 0.000000 0.000000 
-1.068520 -0.055812 -0.207982 0.000000 0.000000 0.000000 
-7.716040 -0.401680 0.675980 0.000000 0.000000 0.000000 
-2.580320 -0.133874 -0.409233 0.000000 0.000000 0.000000 
-2.579180 -0.132912 -0.317104 0.000000 0.000000 0.000000 
-9.976330 -0.512362 1.582180 0.000000 0.000000 0.000000 
-2.584710 -0.132745 -0.226431 0.000000 0.000000 0.000000 
-27.808399 -1.423310 5.412490 0.000000 0.000000 0.000000 
-3.129630 -0.159636 -0.164230 0.000000 0.000000 0.000000 
-27.757099 -1.410970 6.416500 0.000000 0.000000 0.000000 
-3.413100 -0.172900 -0.059652 0.000000 0.000000 0.000000 
-27.721300 -1.404300 7.437420 0.000000 0.000000 0.000000 
-0.839323 -0.041637 -0.225173 0.000000 0.000000 0.000000 
-3.195610 -0.157969 0.055848 0.000000 0.000000 0.000000 
-0.951780 -0.046883 -0.220002 0.000000 0.000000 0.000000 
-3.740360 -0.183588 0.196260 0.000000 0.000000 0.000000 
-1.074570 -0.052743 -0.209127 0.000000 0.000000 0.000000 
-7.824720 -0.382693 0.685393 0.000000 0.000000 0.000000 
-2.572840 -0.125383 -0.407981 0.000000 0.000000 0.000000 
-2.575620 -0.124617 -0.316617 0.000000 0.000000 0.000000 
-7.799540 -0.377368 1.236770 0.000000 0.000000 0.000000 
-2.577150 -0.124240 -0.225733 0.000000 0.000000 0.000000 
-9.979500 -0.479350 1.942050 0.000000 0.000000 0.000000 
-3.140090 -0.150280 -0.164754 0.000000 0.000000 0.000000 
-27.730200 -1.322280 6.409310 0.000000 0.000000 0.000000 
-3.419620 -0.162462 -0.059757 0.000000 0.000000 0.000000 
-0.878060 -0.040487 -0.235525 0.000000 0.000000 0.000000 
-3.182160 -0.146171 0.055603 0.000000 0.000000 0.000000 
-0.948044 -0.043382 -0.219102 0.000000 0.000000 0.000000 
-3.740950 -0.171184 0.196260 0.000000 0.000000 0.000000 
-1.082590 -0.049350 -0.210653 0.000000 0.000000 0.000000 
-7.937470 -0.360438 0.695154 0.000000 0.000000 0.000000 
-2.563390 -0.115955 -0.406417 0.000000 0.000000 0.000000 
-7.737980 -0.348673 0.951068 0.000000 0.000000 0.000000 
-2.583970 -0.115982 -0.317592 0.000000 0.000000 0.000000 
-9.979510 -0.446186 1.582180 0.000000 0.000000 0.000000 
-2.581550 -0.115422 -0.226082 0.000000 0.000000 0.000000 
-9.981110 -0.444512 1.942050 0.000000 0.000000 0.000000 
-3.134610 -0.139053 -0.164440 0.000000 0.000000 0.000000 
-27.734699 -1.225470 6.409310 0.000000 0.000000 0.000000 
-3.420170 -0.150524 -0.059757 0.000000 0.000000 0.000000 
-8.534450 -0.374115 2.289000 0.000000 0.000000 0.000000 
-0.878196 -0.037421 -0.235525 0.000000 0.000000 0.000000 
-3.186650 -0.135232 0.055673 0.000000 0.000000 0.000000 
-0.948190 -0.040073 -0.219102 0.000000 0.000000 0.000000 
-3.735530 -0.157872 0.195946 0.000000 0.000000 0.000000 
-1.086680 -0.045735 -0.211416 0.000000 0.000000 0.000000 
-13.436800 -0.563170 1.176600 0.000000 0.000000 0.000000 
-2.575620 -0.107500 -0.408294 0.000000 0.000000 0.000000 
-7.854180 -0.326441 0.965205 0.000000 0.000000 0.000000 
-2.580400 -0.106797 -0.317104 0.000000 0.000000 0.000000 
-10.024400 -0.414887 1.589060 0.000000 0.000000 0.000000 
-2.589900 -0.106738 -0.226779 0.000000 0.000000 0.000000 
-27.794001 -1.140620 5.407150 0.000000 0.000000 0.000000 
-3.153040 -0.128844 -0.165382 0.000000 0.000000 0.000000 
-8.177940 -0.332749 1.889590 0.000000 0.000000 0.000000 
-3.428660 -0.138908 -0.059897 0.000000 0.000000 0.000000 
-8.736450 -0.352420 2.342830 0.000000 0.000000 0.000000 
-0.878321 -0.034356 -0.235525 0.000000 0.000000 0.000000 
-3.193090 -0.124341 0.055778 0.000000 0.000000 0.000000 
-0.952219 -0.036913 -0.220002 0.000000 0.000000 0.000000 
-3.710120 -0.143825 0.194585 0.000000 0.000000 0.000000 
-1.078990 -0.041639 -0.209890 0.000000 0.000000 0.000000 
-13.383000 -0.514122 1.171720 0.000000 0.000000 0.000000 
-2.579930 -0.098660 -0.408920 0.000000 0.000000 0.000000 
-7.946520 -0.302497 0.976417 0.000000 0.000000 0.000000 
-2.572820 -0.097489 -0.316129 0.000000 0.000000 0.000000 
-27.791401 -1.053060 4.404880 0.000000 0.000000 0.000000 
-2.586270 -0.097547 -0.226431 0.000000 0.000000 0.000000 
-9.983970 -0.374820 1.942050 0.000000 0.000000 0.000000 
-3.139500 -0.117315 -0.164649 0.000000 0.000000 0.000000 
-27.723101 -1.031100 6.404810 0.000000 0.000000 0.000000 
-3.419140 -0.126569 -0.059722 0.000000 0.000000 0.000000 
-8.838020 -0.325620 2.369750 0.000000 0.000000 0.000000 
-0.878430 -0.031443 -0.235525 0.000000 0.000000 0.000000 
-3.193490 -0.113751 0.055778 0.000000 0.000000 0.000000 
-0.936756 -0.033203 -0.216403 0.000000 0.000000 0.000000 
-3.660670 -0.129753 0.191968 0.000000 0.000000 0.000000 
-1.079120 -0.038061 -0.209890 0.000000 0.000000 0.000000 
-13.380600 -0.469600 1.171370 0.000000 0.000000 0.000000 
-2.592090 -0.090518 -0.410797 0.000000 0.000000 0.000000 
-7.951450 -0.276281 0.976905 0.000000 0.000000 0.000000 
-2.581060 -0.089231 -0.317104 0.000000 0.000000 0.000000 
-9.983520 -0.345143 1.582180 0.000000 0.000000 0.000000 
-2.582600 -0.088833 -0.226082 0.000000 0.000000 0.000000 
